ncols 119
nrows 32
xllcorner 850
yllcorner 4000
cellsize 50.0
6.378348643437910823e+02 6.159092848754054330e+02 5.922044387138176944e+02 5.674569022089043528e+02 5.420375025937930786e+02 5.239370013614940262e+02 5.133354055557923630e+02 5.078646697461356894e+02 5.024077871251320744e+02 4.968806030875726947e+02 4.899154257251039439e+02 4.804685651151146999e+02 4.666586176121123799e+02 4.446306523263814370e+02 4.098593635001626012e+02 4.075929806452539310e+02 4.029669209578567006e+02 3.981464421901858941e+02 3.923825096875434042e+02 3.840546513515853917e+02 3.741898724703733023e+02 3.601416637140990815e+02 3.375376706439604391e+02 3.022696845873516054e+02 3.371141311309525008e+02 3.802714097821825590e+02 4.286461029062491548e+02 4.799737993869946990e+02 5.314696565375331829e+02 5.791994678358390729e+02 6.178809128545402700e+02 6.407898841690205245e+02 6.469188625001738728e+02 6.431504047809939948e+02 6.313395225847373240e+02 6.131905654458878416e+02 5.898622955828941485e+02 5.592457117300832579e+02 5.077215047920061011e+02 5.215942247868524646e+02 5.357513206405120627e+02 5.502928869239062806e+02 5.652560968318562118e+02 5.807836888929200541e+02 5.970111250227796518e+02 6.139881701853247478e+02 6.318442853053880981e+02 6.507521947085782585e+02 6.709515829361660053e+02 7.295453620089624565e+02 7.929015703145971656e+02 8.626156462455522842e+02 9.344798835846494285e+02 9.962244199796449493e+02 1.043222543208520165e+03 1.068410241868979028e+03 1.071740500795099251e+03 1.067444683170676626e+03 1.059446483941245106e+03 1.043706184174991449e+03 1.015013685080475170e+03 9.732581068001393305e+02 9.222610507802526172e+02 8.642242734581485593e+02 7.989884196819739373e+02 7.356375243650675202e+02 6.770482092168895178e+02 6.222041029932197489e+02 6.038477285337137346e+02 5.857474491533936316e+02 6.134055973630397602e+02 6.463761907291254829e+02 6.656633129512541700e+02 6.553786445723173983e+02 6.162668290066361578e+02 5.606537456596798847e+02 4.964127181814864684e+02 4.298641831443110277e+02 4.664045788753998636e+02 4.943223137124314235e+02 5.158056169432668412e+02 5.347884004032464418e+02 5.508388275225572670e+02 5.668769211092035221e+02 5.827558286251484105e+02 5.986362695201669339e+02 6.146428505975413827e+02 6.307087855714687521e+02 6.463821406797349027e+02 6.606013880034588510e+02 6.742978466308295538e+02 6.843980865196660943e+02 6.846535262712773147e+02 7.338970183897978359e+02 7.856898601585659208e+02 8.405331359094965364e+02 8.991220957920493220e+02 9.556771251851807847e+02 1.008956514497197986e+03 1.055256867791739523e+03 1.095109442594117581e+03 1.123652480998227247e+03 1.130652315492937078e+03 1.109219675292152715e+03 1.067606909993721501e+03 1.013356429132597214e+03 9.519684615664684770e+02 8.886149586041367456e+02 8.300230480337706922e+02 7.751768393319892994e+02 8.294691287580639028e+02 8.672156813197666452e+02 8.761270104563117229e+02 8.510826227371999266e+02 8.057910410187490697e+02 7.496157205897525273e+02 6.886536484876802433e+02 6.266860923603256879e+02 5.680952605474423081e+02
6.910270478569640318e+02 6.720246550512300701e+02 6.500164202904732065e+02 6.260836669741421474e+02 6.006292548830459737e+02 5.825285982393428412e+02 5.763883081024914645e+02 5.701787338297762062e+02 5.637290584718705304e+02 5.567551783107705887e+02 5.483812784417933699e+02 5.375256390645284910e+02 5.226245167583182365e+02 5.016154465045258348e+02 4.732122604740789029e+02 4.706570147581371089e+02 4.648894313964555636e+02 4.583789387508509208e+02 4.494092475880900679e+02 4.351682308593503308e+02 4.164350524539387379e+02 3.882583628237679250e+02 3.486870151743931956e+02 2.994706164343459704e+02 3.443770545619223071e+02 3.911836731197912513e+02 4.406399314103935012e+02 4.922162003141389732e+02 5.443903858539576959e+02 5.945626128260983023e+02 6.388870990504173051e+02 6.720203191350814222e+02 6.868734924115030935e+02 6.882698574967346303e+02 6.794216141643131550e+02 6.624783048713900371e+02 6.385273659094402774e+02 6.066919831441291535e+02 5.625670733058141195e+02 5.764174646436417788e+02 5.875464843815123004e+02 6.020881905131819849e+02 6.145018768603897570e+02 6.300296700526516815e+02 6.488070674472362498e+02 6.657843962485137581e+02 6.824392072396360618e+02 6.955038803093366369e+02 6.969379006588231960e+02 7.255323287615427716e+02 7.888886814737784334e+02 8.586028524179855594e+02 9.290393196531701960e+02 9.862188195691061310e+02 1.023618807667243004e+03 1.033618388365074452e+03 1.026094131153637136e+03 1.017152619503664937e+03 1.012115048457596117e+03 1.004445405803451649e+03 9.893925312329176904e+02 9.618300232902829521e+02 9.210419389133783170e+02 8.709388573900135952e+02 8.150509327679963008e+02 7.583171451149144104e+02 7.040428976334162599e+02 6.545079031139142671e+02 6.131972871545534645e+02 5.681256711249467344e+02 5.511488857792817271e+02 6.029431813883530822e+02 6.369188064972126995e+02 6.370344103164849230e+02 6.035728583773748142e+02 5.517650729079538223e+02 4.908670841505871181e+02 4.267882540264919840e+02 4.769577882235340098e+02 5.193329237897066832e+02 5.529760771742405723e+02 5.792833921258953751e+02 5.993395882485353923e+02 6.176506511801013630e+02 6.348519042464110953e+02 6.516951050869944311e+02 6.685482142462560660e+02 6.854023074412256165e+02 7.013445906819781612e+02 7.145541821633718200e+02 7.257998313432329951e+02 7.299244207150414923e+02 7.182262508662421396e+02 7.700024436683552267e+02 8.225095325724990971e+02 8.777209996051968801e+02 9.304486878081207806e+02 9.768607759600907912e+02 1.014739237024446766e+03 1.044383313371201211e+03 1.076530045355728362e+03 1.101949215805093900e+03 1.109951341765502548e+03 1.092664667542343977e+03 1.052385434368374717e+03 9.985667832344868202e+02 9.379495197662582768e+02 8.754877334549114494e+02 8.146656745224139513e+02 7.562691522501731924e+02 8.115596612724740453e+02 8.512235525026302412e+02 8.633634735648988681e+02 8.407437410661292461e+02 7.970157158092835061e+02 7.416865247410294160e+02 6.810411333492829726e+02 6.190560337215150639e+02 5.604651940619306743e+02
7.326212461549871477e+02 7.205687328348191159e+02 7.036062482709236292e+02 6.835848366234159812e+02 6.627943016112461692e+02 6.458826990767605594e+02 6.393226205555079105e+02 6.321397023871987813e+02 6.244331531500266692e+02 6.160886386612319257e+02 6.065933964244599110e+02 5.950922584751473323e+02 5.805376667960190389e+02 5.624144378299927212e+02 5.429233035076197211e+02 5.335633167530684204e+02 5.235471815168374405e+02 5.124667657624703452e+02 4.970172623861806187e+02 4.734168344839813471e+02 4.415089809570148986e+02 4.001361858643425080e+02 3.513935084547117071e+02 2.966733719511608456e+02 3.449937426743160245e+02 3.941795693421557303e+02 4.449008496207361532e+02 4.971345479999321242e+02 5.501076975223652425e+02 6.021762989019407541e+02 6.506270147813334006e+02 6.913178278046025298e+02 7.177893734989355607e+02 7.274523623596626294e+02 7.241457262117893379e+02 7.107108542073118542e+02 6.889661697654213413e+02 6.596696649184727903e+02 6.211590448171572234e+02 6.339439710490732978e+02 6.423929641773503363e+02 6.561349849240281173e+02 6.662980884471493255e+02 6.818261212267276505e+02 7.026590859990679974e+02 7.204066024842284151e+02 7.357966717092791669e+02 7.471548273077896738e+02 7.517860981307641168e+02 7.567881909103959970e+02 7.925412106221799604e+02 8.668779625817402348e+02 9.329759281475819535e+02 9.813024389843825475e+02 1.002906829698083129e+03 9.938386223131003590e+02 9.730921208799768465e+02 9.576492482057429925e+02 9.565448913072809773e+02 9.546494011839205314e+02 9.489695626235009058e+02 9.364493317010914097e+02 9.113585640540009081e+02 8.727245373996519220e+02 8.252406831664936817e+02 7.734014069461029521e+02 7.207480403658713612e+02 6.697390854508968232e+02 6.217180135897286846e+02 5.757057622613590411e+02 5.350361555993381444e+02 5.863173792129855428e+02 6.198553524727707327e+02 6.221864268126481647e+02 5.922166201533668755e+02 5.436888897028470637e+02 4.856331228422146182e+02 4.237139112487416241e+02 4.776667179873894611e+02 5.265165728430090439e+02 5.689156486351452031e+02 6.042290579638710142e+02 6.310515403802409082e+02 6.520627425576775522e+02 6.704253444914365900e+02 6.882904694076586338e+02 7.063726572124217000e+02 7.252735669877690725e+02 7.434518275451723639e+02 7.587742582525443140e+02 7.715276701675422828e+02 7.754559629706540136e+02 7.577874552664031853e+02 8.013187517606037318e+02 8.505620474453570523e+02 9.098868356148220755e+02 9.558472832195290039e+02 9.871644407317812693e+02 1.000495048142408791e+03 1.003842013927609287e+03 1.036990158324931144e+03 1.067752659973005393e+03 1.082015792857386259e+03 1.071674634639237865e+03 1.034612699277469801e+03 9.821872855967708347e+02 9.220933492398447697e+02 8.593275122922403852e+02 7.967603370486444874e+02 7.381685702231081905e+02 7.938719393984084718e+02 8.350501004051534437e+02 8.505491102149867402e+02 8.308135374727924045e+02 7.888558298492029053e+02 7.344252453011445141e+02 6.739939993599340369e+02 6.114769346240532286e+02 5.528860850567352827e+02
7.545408062774356495e+02 7.555694563774569588e+02 7.484006403892603885e+02 7.355442224035225536e+02 7.203575716270454450e+02 7.075074301354347881e+02 6.994431414169602022e+02 6.906613382279565485e+02 6.811567603491113232e+02 6.712348007605637576e+02 6.608808058820167162e+02 6.494387945110572673e+02 6.359294118392400605e+02 6.200107653753703971e+02 6.032675982830052135e+02 5.898317922170197107e+02 5.738809473682372300e+02 5.549131118226239323e+02 5.281328934743161199e+02 4.918256214707427034e+02 4.491009246523522620e+02 4.010082429867159703e+02 3.488544149406827728e+02 2.938781126361747056e+02 3.423861538588269013e+02 3.919798035062264034e+02 4.428588533460245458e+02 4.950080520380154212e+02 5.480018021749602894e+02 6.008178339764227758e+02 6.516292079287736669e+02 6.975518174944409111e+02 7.343669150197265481e+02 7.567308623956633937e+02 7.626090331751709073e+02 7.558845264206283900e+02 7.395605560077522114e+02 7.159896460355914769e+02 6.845138176447405840e+02 6.951796245769422740e+02 7.009860775253629299e+02 7.132590770111796701e+02 7.211456829344830339e+02 7.366739096427771756e+02 7.589692678105805044e+02 7.772293211548964109e+02 7.922284205432787303e+02 8.034701344538663079e+02 8.103803489530197339e+02 8.153825360886644376e+02 8.321061006975967302e+02 8.813536364795529607e+02 9.438397907389826287e+02 9.787231894507576726e+02 9.788287305671371996e+02 9.492879922405928710e+02 9.129084473457550075e+02 8.942969966941109305e+02 8.966970540038887520e+02 8.981991522419826879e+02 8.979975761139120323e+02 8.962403473417558644e+02 8.872017954668017410e+02 8.643919287674895031e+02 8.270561521554977844e+02 7.803762925048865782e+02 7.287644544897533478e+02 6.754753416343244226e+02 6.224410430938970649e+02 5.703457214084949101e+02 5.195086545217551475e+02 5.703865591735268481e+02 6.039322239257262481e+02 6.080474934166335288e+02 5.809337788170212207e+02 5.354906188257172062e+02 4.802839466212867592e+02 4.206416037869727802e+02 4.752710812723923368e+02 5.258689269926763927e+02 5.706151368804663662e+02 6.082890674445119430e+02 6.377108967722064108e+02 6.593306363394493701e+02 6.771882205465619791e+02 6.957698567496174746e+02 7.150002038363809334e+02 7.382671742577517762e+02 7.616832749209274880e+02 7.850593733485229677e+02 8.063105854983892868e+02 8.228657999989297878e+02 8.340229921028037552e+02 8.668141217034631154e+02 9.046887197055266370e+02 9.463547089275326698e+02 9.762265652728513032e+02 9.844512978462017827e+02 9.664659232529766086e+02 9.267688342076359049e+02 9.836171487232344361e+02 1.027649927051449140e+03 1.051480329231402493e+03 1.048724893100936015e+03 1.015468077444990968e+03 9.648114620064840210e+02 9.053638589757122190e+02 8.425128705022248141e+02 7.793622562961644462e+02 7.207706219652824302e+02 7.755128116423967413e+02 8.174586107915487219e+02 8.368221731866872233e+02 8.215365828763040099e+02 7.817097705581395530e+02 7.283797034775274142e+02 6.685211946967929180e+02 6.065379813950986545e+02 5.453523307209486575e+02
7.477924798738365553e+02 7.692211493670429263e+02 7.786727333187468503e+02 7.771644724516168026e+02 7.692862568807804564e+02 7.601538059484066707e+02 7.516534380587105488e+02 7.404805942092522173e+02 7.279964083829937636e+02 7.157360017610576506e+02 7.047540042009134140e+02 6.943795212699280910e+02 6.827740383609062746e+02 6.685566906816637811e+02 6.517291688764419177e+02 6.335978136614171490e+02 6.095255724171159954e+02 5.786145150357250486e+02 5.398477718748005145e+02 4.954884961345319425e+02 4.473898292910978398e+02 3.967181775837795499e+02 3.443980324877745716e+02 2.910853274462470495e+02 3.381576480223696990e+02 3.869941648133099648e+02 4.369833758090750848e+02 4.881175521925435419e+02 5.401935580886131447e+02 5.926284690811634164e+02 6.442689967310510610e+02 6.932025430617632082e+02 7.365972057081241928e+02 7.706477431106291078e+02 7.904529380140633066e+02 7.945052198216069428e+02 7.873283715656509685e+02 7.732942423666298737e+02 7.542273646316397162e+02 7.601109336704677162e+02 7.643417814548179194e+02 7.739002211674425098e+02 7.797395802880702149e+02 7.952678937885000323e+02 8.179546869292458950e+02 8.362474140462912828e+02 8.511156776623838596e+02 8.627439376716904462e+02 8.714645946381325530e+02 8.787384547042316854e+02 8.954618412074180469e+02 9.330225311096097585e+02 9.698594398749798984e+02 9.814204731875991001e+02 9.568831733700810673e+02 9.035626367409388422e+02 8.543179640011144329e+02 8.357066560938844759e+02 8.361610069475235605e+02 8.383717494388710065e+02 8.392592954523438493e+02 8.457212070583590275e+02 8.487316336473761567e+02 8.420434719870494291e+02 8.188771895702546999e+02 7.794373062562748373e+02 7.298798904502608593e+02 6.750986769613057277e+02 6.182700806909360836e+02 5.611356074316153126e+02 5.044561610237529976e+02 5.544479199936445184e+02 5.873107630700200161e+02 5.923142939658879413e+02 5.680800703167565189e+02 5.260093889632520359e+02 4.742092442737686611e+02 4.175715523449457578e+02 4.719572555299103556e+02 5.209816126761252235e+02 5.629642815591003000e+02 5.969349078859928568e+02 6.203003558925719290e+02 6.359218389474876858e+02 6.503131235833253641e+02 6.694751215962630795e+02 6.912726126201386023e+02 7.200110761723550468e+02 7.455491714528438933e+02 7.803532219858485632e+02 8.162050163135754701e+02 8.509614768798270461e+02 8.816591072491439718e+02 9.161904363931150783e+02 9.496039616152154395e+02 9.766163812815614165e+02 9.866134640041479997e+02 9.710698380102420515e+02 9.351195518379051919e+02 8.832353361152411253e+02 9.418270109896046733e+02 9.911237960996168113e+02 1.022431246935199397e+03 1.026083150993721347e+03 9.961991973178276112e+02 9.472504318006239146e+02 8.885368588991874503e+02 8.258623284737612948e+02 7.626477824581456844e+02 7.040562867723809859e+02 7.586928091001574330e+02 8.008740713147711858e+02 8.214136129543549032e+02 8.091755160406772802e+02 7.717606360918227892e+02 7.201090567946694136e+02 6.612430659642726596e+02 5.996022784702067838e+02 5.378586320119546826e+02
7.193370656679761623e+02 7.595174625657700744e+02 7.884437409006925463e+02 8.034526593433046173e+02 8.052397013843535660e+02 7.998184281046236492e+02 7.897320243791020857e+02 7.737091332147382445e+02 7.553554990162078866e+02 7.386202865881165280e+02 7.273876697218676100e+02 7.204169758270910506e+02 7.129754425579450299e+02 7.012347467965505530e+02 6.829429462294580162e+02 6.572271779562139500e+02 6.228229890011419911e+02 5.822014463898506165e+02 5.367606218953745838e+02 4.882746685348257074e+02 4.382557781741372764e+02 3.878172536551545591e+02 3.377500089738923634e+02 2.882953371485259595e+02 3.334836547942840070e+02 3.805553829251904858e+02 4.287327618479309876e+02 4.778880017808850766e+02 5.280614294165324054e+02 5.790271135458747267e+02 6.301368618213257378e+02 6.801854889709762801e+02 7.273046161276662360e+02 7.688974641198009294e+02 8.015858325052661257e+02 8.212110290475935699e+02 8.271272268796510616e+02 8.256370545679900488e+02 8.205054502774414686e+02 8.242849513958425405e+02 8.290926196097316279e+02 8.367645080419787291e+02 8.430955059735680379e+02 8.586237906685380494e+02 8.789079836902906209e+02 8.962648928562730362e+02 9.107439496625300990e+02 9.226442224327893200e+02 9.327281493984409053e+02 9.430031691077704181e+02 9.583707207384740059e+02 9.810746357659749037e+02 9.972892128446470679e+02 9.864084335050907839e+02 9.473668233464790092e+02 8.881977769849692095e+02 8.158351911788176949e+02 7.808623595365345409e+02 7.775710972432086692e+02 7.781285474142925978e+02 7.730758182761313719e+02 7.885632176670585523e+02 8.010732207080800436e+02 8.068042483895980013e+02 7.992258074030637545e+02 7.705853609227798415e+02 7.249544448524305835e+02 6.700977888628631263e+02 6.109093876810503616e+02 5.503073056922817159e+02 4.897923067886462718e+02 5.379026949130318371e+02 5.681261657521373536e+02 5.717354315144905286e+02 5.515482204082172757e+02 5.134859742713612150e+02 4.662069267251622477e+02 4.145035264712627168e+02 4.660291782324190990e+02 5.089430523308290617e+02 5.418133644880174415e+02 5.662984526744003233e+02 5.823154415258245535e+02 5.927493639062373632e+02 6.006834506501968463e+02 6.217441703749221915e+02 6.469137977482572524e+02 6.782397716874812659e+02 7.045518908499255986e+02 7.528930183885577208e+02 8.027805232585593558e+02 8.536493941941482717e+02 9.009522753635536674e+02 9.427427391044744809e+02 9.753284908448109718e+02 9.923715807355611105e+02 9.843583298240359909e+02 9.536172198759115872e+02 9.070309263576872354e+02 8.496610205258313044e+02 9.117910039286300616e+02 9.644163470536744853e+02 9.995869770705314750e+02 1.005410129019690544e+03 9.777015608615390647e+02 9.301231323224980088e+02 8.720786952174446469e+02 8.096517754262005155e+02 7.465348805052617536e+02 6.879435203659938907e+02 7.430193937580255579e+02 7.844675816313280166e+02 8.030061829449264224e+02 7.933884961827814095e+02 7.589678410459038105e+02 7.097950848842699543e+02 6.526105743484025652e+02 5.918616405090599528e+02 5.304042881426506710e+02
6.888925528647464489e+02 7.387152032549408887e+02 7.801089717371988854e+02 8.098153660523620374e+02 8.239202879879439934e+02 8.214795356165629983e+02 8.054492616007963761e+02 7.790406367283687814e+02 7.484368991384953915e+02 7.213689429043014343e+02 7.109998734259431785e+02 7.136386556030306565e+02 7.159361970050795207e+02 7.099378961295984709e+02 6.905371386456606615e+02 6.598266993198213868e+02 6.201896010385459022e+02 5.745797765932991297e+02 5.254829057188183015e+02 4.749590557415522198e+02 4.245526073228078872e+02 3.754439954136618098e+02 3.288854618142688082e+02 2.855086223210686853e+02 3.289986838316578428e+02 3.734877011773015738e+02 4.187371908464634771e+02 4.648387966170323580e+02 5.121116167403802137e+02 5.606272004551428836e+02 6.100817239657660593e+02 6.597407422085898361e+02 7.083978230714778874e+02 7.543333412145265129e+02 7.953059980527910966e+02 8.286798971912589877e+02 8.517329725272014684e+02 8.648770534685670555e+02 8.720440469782214450e+02 8.807349505052487757e+02 8.884077643330732599e+02 8.974951144653254005e+02 9.063755547486773594e+02 9.205139526553622318e+02 9.383199353557172344e+02 9.541802707375740056e+02 9.677666656821375000e+02 9.793197073452757877e+02 9.894735269919575558e+02 9.993680219130260411e+02 1.010379172835366944e+03 1.020970207362686665e+03 1.019224452712942593e+03 9.916624111128926415e+02 9.442164556932546020e+02 8.830999863071606342e+02 8.139375123027842847e+02 7.505860925919116653e+02 7.227272030462589782e+02 7.220043410191158273e+02 7.097245538082843268e+02 7.291079771691785254e+02 7.480568450113062227e+02 7.638197197415763640e+02 7.691500969031994828e+02 7.533288521077943187e+02 7.136186395011562809e+02 6.603502103673204147e+02 6.003106492142959496e+02 5.378190339239341711e+02 4.754472898694829723e+02 5.206263819206504877e+02 5.440621364144475365e+02 5.428490517334553260e+02 5.246000796904788785e+02 4.911150119974566337e+02 4.498779744425715421e+02 4.114368483523618920e+02 4.516763864651889548e+02 4.806071443585102543e+02 5.016436952712563198e+02 5.192663887974866839e+02 5.321550769948026982e+02 5.398510863869205423e+02 5.328267364681577192e+02 5.614196619739481093e+02 5.916965158455941491e+02 6.252698836639956426e+02 6.610201021584623504e+02 7.196094660833283569e+02 7.829602286365795862e+02 8.526686050778291701e+02 9.138214149019149772e+02 9.605160322343202779e+02 9.904180885447551645e+02 9.957050120456920013e+02 9.735171116958430275e+02 9.326640279572561667e+02 8.797950023403087698e+02 8.198353928959811583e+02 8.836460317608456307e+02 9.385847476037333763e+02 9.766873451558345778e+02 9.857156451299558739e+02 9.601564877432311960e+02 9.138060278195135879e+02 8.562826293457886777e+02 7.939780748635766940e+02 7.309061037017014542e+02 6.723148695228665019e+02 7.255055910447271117e+02 7.639844316530241031e+02 7.786771913520315138e+02 7.726100046091540889e+02 7.427331797018791804e+02 6.974171980271337361e+02 6.429479376347480866e+02 5.837632879754437454e+02 5.229843545768876538e+02
6.565229134753149083e+02 7.125904544579196909e+02 7.616495435533037153e+02 8.000420323128499831e+02 8.224440616363142453e+02 8.214175741616570576e+02 7.984031811664553970e+02 7.614509893467179609e+02 7.153288928640048425e+02 6.656971687697747484e+02 6.586541777375759921e+02 6.779365040773873261e+02 6.926483552030075543e+02 6.956934513467190300e+02 6.822824419366976372e+02 6.521667662209531500e+02 6.106161017816111780e+02 5.622150440069225397e+02 5.106551313963562961e+02 4.586109999620034614e+02 4.076795831251744744e+02 3.585567452673582238e+02 3.140622146674613759e+02 2.827256577597304954e+02 3.234768166733584280e+02 3.651223026199236870e+02 4.065318859366112747e+02 4.483670785272943817e+02 4.918272180502760307e+02 5.371815061907420841e+02 5.842342551595489795e+02 6.324691856503767440e+02 6.810962567369630278e+02 7.289941662368368043e+02 7.746309632518701846e+02 8.162836297897629265e+02 8.524023084799148364e+02 8.822654445144047486e+02 9.048942579686128056e+02 9.232639183453486567e+02 9.372375315779847824e+02 9.500981317623039786e+02 9.610620211170825087e+02 9.747006995287445079e+02 9.907075692063533552e+02 1.004648970042850578e+03 1.016666851864134060e+03 1.027068951758030380e+03 1.036187596593604439e+03 1.044139666975733689e+03 1.050142615834740582e+03 1.050695364294980664e+03 1.034430393704601556e+03 9.977892965409974977e+02 9.465342733668107940e+02 8.856968345220864194e+02 8.192212882167415273e+02 7.558698139807638654e+02 6.972803666263848754e+02 6.734602751164062511e+02 6.511349864701446677e+02 6.685180146121019789e+02 6.914448356301854801e+02 7.163260449282058744e+02 7.349458775948245375e+02 7.323282473288576284e+02 6.994790546087400571e+02 6.486831819261792589e+02 5.884771844940014489e+02 5.246489697776951289e+02 4.613631282458125611e+02 4.996696512609925094e+02 5.133706731625979955e+02 5.066182982313031857e+02 4.851372034593803164e+02 4.495935589380810029e+02 4.053469122846159394e+02 4.083706187781380663e+02 4.216078800268263080e+02 4.349644970269772557e+02 4.485070768556456073e+02 4.623116058342944825e+02 4.764320693892046279e+02 4.908939288263243839e+02 5.056412616936531208e+02 5.527120490716737322e+02 6.019567215439052461e+02 6.512752506150080762e+02 7.005250837179786458e+02 7.562911188689155324e+02 8.161508688079727563e+02 8.773910635395841382e+02 9.329600579506567328e+02 9.757842566336204300e+02 9.984759522459843311e+02 9.914804813445397258e+02 9.592495937950297957e+02 9.114921147707739237e+02 8.546198142969524270e+02 7.929668099339199898e+02 8.574915486203080945e+02 9.139625426052911052e+02 9.545578109350466320e+02 9.671228260313669125e+02 9.439220529776226840e+02 8.987524460351424977e+02 8.414839449600991657e+02 7.788942303164686791e+02 7.157161349285838696e+02 6.571250121499791703e+02 7.063838915189060117e+02 7.391601521711579608e+02 7.479724864739913528e+02 7.440499319089157098e+02 7.219436460869974326e+02 6.827528731847129393e+02 6.325610063265951339e+02 5.757963489665879706e+02 5.155983078387540672e+02
6.269997956997976871e+02 6.863768593629182533e+02 7.396921214343196880e+02 7.829752121199171597e+02 8.094129319432556713e+02 8.086395215144636950e+02 7.813074523347521563e+02 7.374005012612896053e+02 6.821890571225781059e+02 6.164510095977626634e+02 5.757005455522012198e+02 6.286845839482125484e+02 6.565929576521298259e+02 6.661070834451969631e+02 6.591992295955654981e+02 6.341990530402179047e+02 5.934107452055986869e+02 5.434844949832012162e+02 4.898757820881392604e+02 4.364744556120764969e+02 3.852797617670228192e+02 3.320141462025335954e+02 2.771673618485939414e+02 2.799451323581541260e+02 3.184296718846721888e+02 3.566300898632973144e+02 3.921741406773680865e+02 4.276369392007075589e+02 4.669245277756297696e+02 5.092305629970928749e+02 5.539463462163879512e+02 6.004976582264504259e+02 6.483977621752292180e+02 6.970159115102585474e+02 7.450961139719693165e+02 7.913876783062928553e+02 8.349764357945068696e+02 8.753025073779485865e+02 9.116693680327306311e+02 9.436389296212968247e+02 9.687954615504944513e+02 9.879693370162874544e+02 1.001741105583071544e+03 1.014938910214464045e+03 1.028436472524496821e+03 1.039431238687034693e+03 1.048865571131008892e+03 1.057261190456920531e+03 1.064753900970805489e+03 1.070647518393281871e+03 1.072741548248774279e+03 1.065556865294782256e+03 1.041150379614585518e+03 1.001301833797783729e+03 9.501526815449037713e+02 8.922765260560684055e+02 8.321205563843960817e+02 7.743622539209986826e+02 7.218649568238257643e+02 6.775699183426442005e+02 6.298908212986758599e+02 6.099281177225593638e+02 6.311297168822462709e+02 6.653161710525109811e+02 7.001867362879127086e+02 7.112195743615881156e+02 6.858255059205906718e+02 6.378165559280334946e+02 5.772702390213386252e+02 5.108772702869899263e+02 4.475246556104602860e+02 4.752956282482607548e+02 4.782819249387409286e+02 4.663179465226226057e+02 4.398037561537888678e+02 3.993007810509141109e+02 4.023236332082537388e+02 4.529833786082088523e+02 4.771766701969182236e+02 4.929977467118942513e+02 5.053982687477549121e+02 5.162376932870494102e+02 5.263796827660491999e+02 5.325519862536212941e+02 5.229665071000835042e+02 5.722113870980808770e+02 6.231345643245319934e+02 6.756830078508327233e+02 7.299516044619698505e+02 7.871579340754227587e+02 8.459911425643884968e+02 9.034231204225003466e+02 9.539488325051294169e+02 9.900289711800991199e+02 1.001433183265372236e+03 9.818270436929344669e+02 9.417000654731468785e+02 8.892314636776898169e+02 8.301223275212191766e+02 7.682603472829841849e+02 8.328462838378209199e+02 8.902568405096200195e+02 9.331179368182790768e+02 9.497575450581055065e+02 9.296296558815549815e+02 8.857640977896885488e+02 8.283705879113348374e+02 7.642796892950302663e+02 7.009264245357044274e+02 6.423353953678257540e+02 6.856447839881968775e+02 7.079695506011116777e+02 7.099220271129737512e+02 7.055582520775548119e+02 6.904396406495834526e+02 6.613476190818740861e+02 6.184613246895456768e+02 5.663877670759630973e+02 5.082373406445476576e+02
6.039694505280858721e+02 6.608996928512066233e+02 7.157778401202380110e+02 7.618400566331588379e+02 7.904391434408614714e+02 7.896540003012518127e+02 7.601672862370555777e+02 7.136090327593443590e+02 6.574940656233095524e+02 5.973855323243517432e+02 5.407267080224096389e+02 5.923141630101209785e+02 6.188271010102790797e+02 6.290331854404258820e+02 6.245482139475057011e+02 6.047930833353179878e+02 5.674731094876308362e+02 5.165861896795536268e+02 4.603701099874338638e+02 4.052296517563992211e+02 3.615881775954796353e+02 3.141079920815682271e+02 2.743923370303757565e+02 2.986390876551783435e+02 3.247539966701036747e+02 3.493945381403712531e+02 3.732483457609789639e+02 3.975338673864958992e+02 4.355324677676238707e+02 4.766108174334405589e+02 5.200524156589330005e+02 5.652403243857513644e+02 6.123118872844991074e+02 6.615232600763213213e+02 7.108797461539124924e+02 7.593264529713810589e+02 8.067962296591082350e+02 8.535513917415125889e+02 8.986383946615094374e+02 9.401155889685203420e+02 9.754572748281973418e+02 1.002869094795419528e+03 1.020815899773962087e+03 1.032487584063386748e+03 1.040229267500766809e+03 1.046140230731733254e+03 1.051424787185282412e+03 1.056847612529306843e+03 1.062718579301808177e+03 1.067852396753452922e+03 1.069766477354311291e+03 1.063582470286890612e+03 1.040735763223276535e+03 1.003014495502941600e+03 9.543659503213734752e+02 8.993310559341216504e+02 8.421013197554325416e+02 7.860652854873495698e+02 7.331900075276601001e+02 6.839395729938743216e+02 6.362181554257655307e+02 5.907238341680410940e+02 5.725394672489883305e+02 6.160719496701557318e+02 6.701679508486108716e+02 6.930635844102962437e+02 6.760306097883785696e+02 6.310103653287734460e+02 5.701759298132313916e+02 5.015248804996167564e+02 4.338858002335344963e+02 4.446500368379629435e+02 4.388775275574161583e+02 4.251234740618878050e+02 3.932569966022691688e+02 3.962785691173714326e+02 4.525200472252626014e+02 5.008949202411887427e+02 5.302717771756646243e+02 5.484419112496486832e+02 5.602235473015530260e+02 5.680077187253029933e+02 5.726205806524915261e+02 5.686911812997972220e+02 5.410669036906497240e+02 5.903116860881615366e+02 6.421056425683831321e+02 6.969065332638391510e+02 7.538405335017214384e+02 8.129647653161082417e+02 8.716517244956121431e+02 9.264319852610053658e+02 9.718294106959311875e+02 9.998460667306851519e+02 9.992005056676773620e+02 9.702544495302526002e+02 9.240566271989420102e+02 8.681321735859581850e+02 8.075075270279232882e+02 7.454109694366100030e+02 8.088869365424757234e+02 8.665783310276822249e+02 9.114512770144257274e+02 9.332184045187067341e+02 9.184046740910447397e+02 8.763010107709167187e+02 8.190475829844187956e+02 7.550359389428928125e+02 6.903320120930052326e+02 6.278735925224592620e+02 6.597902190313312758e+02 6.691994686050790051e+02 6.648884288992035181e+02 6.586173996100385466e+02 6.467983394798375230e+02 6.273757303927621933e+02 5.966486054431089769e+02 5.534855565460628668e+02 5.008970579078842320e+02
5.735142739207602745e+02 6.308594729113906396e+02 6.894665343369672428e+02 7.385497755872090693e+02 7.686486367999468712e+02 7.675448240883133622e+02 7.367105498305204492e+02 6.887734864253676506e+02 6.318603683032312119e+02 5.711834711854511397e+02 5.099739464698405982e+02 5.580553720823442063e+02 5.803226361152949266e+02 5.881884834425637791e+02 5.832858526965405872e+02 5.652670075661394549e+02 5.316554390595691757e+02 4.799689653577826220e+02 4.187535117997921930e+02 3.532149226726164102e+02 3.172552757338896754e+02 2.688704727424832868e+02 2.716178008481440429e+02 2.855601884029024973e+02 2.996448343281258531e+02 3.139521231949992739e+02 3.285753287645430873e+02 3.579708875670465318e+02 3.987211393863216813e+02 4.407861562270375089e+02 4.843191712953155275e+02 5.295063298307347850e+02 5.765777278886290560e+02 6.258236779610704161e+02 6.758851135865415927e+02 7.240526924093534262e+02 7.724468815724544584e+02 8.238516598532750095e+02 8.760277439435436690e+02 9.245626155655455705e+02 9.652803280849662997e+02 9.944834788022943712e+02 1.009688096979378997e+03 1.016757538102386661e+03 1.018585672691187256e+03 1.020161018172679519e+03 1.022011933243797216e+03 1.025119912937860590e+03 1.030676658681641129e+03 1.037017283602773887e+03 1.042213670339829378e+03 1.043546416691832974e+03 1.031588608352566553e+03 1.001283399046349700e+03 9.573162621556411978e+02 9.051246366340345730e+02 8.493323937522491178e+02 7.933261915253274310e+02 7.391433732106829666e+02 6.876797282328327583e+02 6.391481789672933473e+02 5.945171808958473321e+02 5.557608762169120382e+02 6.087918068377226746e+02 6.553416119485054878e+02 6.802270704822042262e+02 6.686072800437331125e+02 6.269650588692944666e+02 5.662954941024673872e+02 4.901165222694648378e+02 4.204061688881851069e+02 4.072272573537899234e+02 3.941342895024550899e+02 3.872164065559829851e+02 3.902362761517505305e+02 4.429596328448758413e+02 4.956995828303572011e+02 5.434935958854028968e+02 5.781220989491720275e+02 5.993380427917697943e+02 6.113009168932378543e+02 6.163202125047184836e+02 6.148616913430189470e+02 5.997394602615637496e+02 5.600716064799191827e+02 6.093162589309554278e+02 6.611100426888118591e+02 7.159538768684094521e+02 7.745430463276828732e+02 8.368462001412790414e+02 8.955411639546410925e+02 9.475669284496595992e+02 9.871690697244260946e+02 1.005871932123914007e+03 9.932107904275934516e+02 9.563813499636811457e+02 9.054468346594802597e+02 8.470736238014973196e+02 7.856458332084838503e+02 7.241662877041809452e+02 7.875029079325252042e+02 8.458605543304929597e+02 8.926899564101174747e+02 9.180775728172654908e+02 9.077396811657698663e+02 8.673975559846979877e+02 8.097113326037417664e+02 7.439594997789024546e+02 6.769950891497945804e+02 6.136423803561613113e+02 6.264860383756274587e+02 6.241153309429319052e+02 6.143767200679988036e+02 6.052671092972647102e+02 5.941238479163292823e+02 5.800057927563206022e+02 5.610392006600710602e+02 5.334200883795163008e+02 4.935731842252554884e+02
5.234644274652200693e+02 5.931769405211631465e+02 6.632911869744501701e+02 7.160078115738859879e+02 7.465091383184777669e+02 7.439183415354928002e+02 7.116002801043772479e+02 6.627045673102869614e+02 6.053573345950085240e+02 5.442996264307598722e+02 4.821142366881618955e+02 5.253331854416917395e+02 5.415912219712643036e+02 5.455477241294167925e+02 5.386827494880407130e+02 5.209298120704286248e+02 4.907763472853989128e+02 4.399529705380256814e+02 3.753920217179146448e+02 3.014190620889499996e+02 2.633770760524877801e+02 2.661236165335735677e+02 3.136725446172744682e+02 3.356243481988543067e+02 3.472018719328520433e+02 3.519817451127610184e+02 3.447454717360792529e+02 3.785055183648406683e+02 4.173886754396613696e+02 4.564741019939211810e+02 4.949509382979929910e+02 5.333094515609352584e+02 5.716245907593537368e+02 6.074400688517337130e+02 6.414741267128312074e+02 6.841290924630668542e+02 7.288605134734243620e+02 7.865506680580708689e+02 8.478492685381154388e+02 9.023900729015739444e+02 9.444528107632024785e+02 9.681641587592177984e+02 9.764152110705210816e+02 9.781543771987887794e+02 9.759483373016809082e+02 9.742312243031768730e+02 9.730532004048401404e+02 9.737431204858372666e+02 9.802322526153640183e+02 9.887313603620528966e+02 9.980131687539523000e+02 1.007636827471622496e+03 1.009384300090714760e+03 9.926199207649289065e+02 9.559391021330587819e+02 9.072956108294246178e+02 8.526392749264218764e+02 7.960949565619185933e+02 7.401946489613483209e+02 6.862574211455134900e+02 6.348463268506204713e+02 5.862419537370547005e+02 5.398150367037848127e+02 5.960311493683188928e+02 6.427906373447240185e+02 6.701256911816087722e+02 6.642811812077944751e+02 6.287936128290491524e+02 5.765858856331661855e+02 5.176012581963914272e+02 4.638044075891531293e+02 4.266514466274076085e+02 3.811804919843331731e+02 3.841978125851962318e+02 4.290695671405192684e+02 4.775267962954436030e+02 5.272515700861860068e+02 5.747000195860812255e+02 6.148383289327853163e+02 6.420561091067741017e+02 6.562047168910954724e+02 6.597484359616510119e+02 6.530583355327072468e+02 6.278999444210890033e+02 5.802702696871299395e+02 6.320643247911145863e+02 6.863389641425490026e+02 7.433792021524642450e+02 8.032741323234719175e+02 8.636881131097333082e+02 9.204033377158584699e+02 9.684685950841615067e+02 1.000715718622931490e+03 1.006635516556325115e+03 9.825809125060831093e+02 9.392417172034424766e+02 8.848036607316917070e+02 8.248503854416613876e+02 7.627947462283677851e+02 7.042032488300355908e+02 7.678441438811253192e+02 8.271676847762443003e+02 8.761100791052700743e+02 9.051092490599494340e+02 8.996525427485249793e+02 8.614055340846252875e+02 8.024624549591558207e+02 7.326934458144094151e+02 6.629826037030359203e+02 5.996299372026703622e+02 5.863631719903579551e+02 5.732702090900287430e+02 5.603707446412156514e+02 5.477066290912725890e+02 5.352159998687261577e+02 5.228679415785727542e+02 5.106119744362899837e+02 4.984235945552519524e+02 4.862574696573083770e+02
5.272699622540676501e+02 5.898032132336161339e+02 6.504514418195814187e+02 6.990749834886083818e+02 7.260903737865414769e+02 7.193916073723955833e+02 6.847472797241294984e+02 6.350899643768079841e+02 5.781310093193872035e+02 5.178715551120869804e+02 4.564025149900058409e+02 4.935102877394448910e+02 5.026495722185098316e+02 5.021121908890627878e+02 4.924614985184509237e+02 4.738254384006902455e+02 4.471720088119711818e+02 4.021095079411720121e+02 3.391687972321204825e+02 2.578850949094233442e+02 2.606308506426200893e+02 3.121133100296736984e+02 3.570185424943449561e+02 3.824970142668631183e+02 3.924761709783487049e+02 3.892149909326071224e+02 3.613337785154224093e+02 3.783108245342768896e+02 4.214069144390691122e+02 4.561463704967045487e+02 4.860356818545014335e+02 5.140290250163842529e+02 5.411472177048638059e+02 5.645975800033678524e+02 5.791801033532863130e+02 6.227137491366472659e+02 6.697858692777812166e+02 7.394986974821243848e+02 8.183589419770474933e+02 8.769185384214022179e+02 9.152535236950452600e+02 9.293248964620185006e+02 9.301139278842717886e+02 9.264626639546611386e+02 9.214146246123607398e+02 9.174769292402513656e+02 9.133663406199779047e+02 9.097427981308097742e+02 9.194464551000445454e+02 9.302294511536334767e+02 9.425328154367606430e+02 9.604853671762506337e+02 9.756750096689456768e+02 9.750379723689499087e+02 9.481186327380697776e+02 9.041835098964244253e+02 8.510361473327463955e+02 7.940400710181447721e+02 7.364805686380260568e+02 6.801064884823466627e+02 6.255701753803292604e+02 5.737760545768786642e+02 5.245311967755959586e+02 5.822216354709004236e+02 6.303720237799738015e+02 6.604884733377878092e+02 6.602583503084367749e+02 6.305099209914457106e+02 5.844476968652907090e+02 5.316150773143439210e+02 4.790074766578076151e+02 4.294889591507713931e+02 3.782057393241090040e+02 4.122278848363577026e+02 4.537744813111896178e+02 4.995794317622833773e+02 5.472727553316639160e+02 5.942223105911369885e+02 6.370393122749364920e+02 6.713566656802551051e+02 6.915488300381806539e+02 6.962919314900906329e+02 6.864214015753450440e+02 6.540262289547266619e+02 6.018056780632249456e+02 6.535995211180101023e+02 7.084433652660942471e+02 7.670325077573506860e+02 8.295748343768067343e+02 8.894808274037155797e+02 9.436358231047188383e+02 9.865211478748643685e+02 1.009939910877607076e+03 1.003200719995597183e+03 9.703206063590859003e+02 9.217461390953461660e+02 8.646401982373107558e+02 8.039594129337937147e+02 7.436785717619884508e+02 6.853914233179843905e+02 7.494054813882769395e+02 8.098203926107310053e+02 8.611770104325564716e+02 8.946096226255544934e+02 8.961290433190148406e+02 8.622187641606185480e+02 8.019215601907440032e+02 7.230631077712897650e+02 6.778759895788255108e+02 6.371261466685488131e+02 6.385355999275830072e+02 6.282416756863190130e+02 6.156318458729781469e+02 6.004451036812624807e+02 5.839633419335267490e+02 5.668359577159901619e+02 5.459957868365823970e+02 5.196767177256410832e+02 4.828551647382464580e+02
5.234991319962199441e+02 5.846458274092985903e+02 6.412358072240360798e+02 6.853072240853088033e+02 7.065268874767732541e+02 6.931215684433456090e+02 6.549309902854822667e+02 6.045898779092447057e+02 5.493536583013857353e+02 4.915871538938679919e+02 4.323703815460628448e+02 4.612733985604976965e+02 4.630727764242693070e+02 4.584688019946485156e+02 4.456651750991240419e+02 4.241221709388046861e+02 3.980156177115496803e+02 3.629755683635429477e+02 3.163758120723419438e+02 2.551416682548253618e+02 2.979098524933790486e+02 3.477444445415248993e+02 3.941725143708688961e+02 4.256346563385267814e+02 4.379164543042709283e+02 4.357025497730010102e+02 4.179895968486744664e+02 3.954939806046346575e+02 4.131158916556382223e+02 4.313003736041503657e+02 4.501121613248192830e+02 4.698482409353435401e+02 4.908144305135737113e+02 5.134845992894408937e+02 5.384298808609191838e+02 6.017834288904751929e+02 6.714956298855678369e+02 7.445343863657230941e+02 8.093175208797280220e+02 8.575769342682330034e+02 8.822201265222394113e+02 8.838761648490265088e+02 8.764256597537565767e+02 8.671507920914104943e+02 8.609849472019947143e+02 8.564474730057266925e+02 8.499720332487211181e+02 8.400320201882343554e+02 8.549360337704588346e+02 8.669356206076593026e+02 8.784572417871791004e+02 9.051251040297198642e+02 9.354385488801272004e+02 9.509044313594155255e+02 9.366778463653037079e+02 8.981864421125848139e+02 8.466818659518060031e+02 7.892796036357925686e+02 7.302293687651091432e+02 6.718948421780860372e+02 6.154839092788229209e+02 5.616198302578702624e+02 5.098258085473112260e+02 5.681627858077240489e+02 6.173312886919620723e+02 6.496516020224875092e+02 6.540493255305347020e+02 6.289248008095378282e+02 5.868512489107586134e+02 5.364572401351852022e+02 4.832225733219040649e+02 4.295386457419887165e+02 3.752338172829960286e+02 4.188642677402759773e+02 4.635217491483659842e+02 5.095816474785742116e+02 5.563634796154848345e+02 6.026466253680636100e+02 6.465989119459251242e+02 6.850214083535939835e+02 7.129477603864216917e+02 7.232271139632376844e+02 7.121635617174299568e+02 6.771177839340921309e+02 6.250271187515789961e+02 6.798711841025526610e+02 7.375188600549444118e+02 7.972938872166895408e+02 8.580010822535758734e+02 9.159656682202614775e+02 9.665439061611033367e+02 1.002912517984558804e+03 1.014867426745744638e+03 9.955162955828259328e+02 9.553184513952943462e+02 9.026925678923937539e+02 8.434421245970532937e+02 7.809726970512807611e+02 7.223811301804458935e+02 6.675356350231418219e+02 7.316603558425879328e+02 7.930215465476843519e+02 8.469573620664947384e+02 8.858728001923468582e+02 8.980883967911581749e+02 8.760727036724254049e+02 8.318971381070942925e+02 7.779089218810267994e+02 7.394305382069957204e+02 7.063952949406120752e+02 6.900430892767158184e+02 6.743862712649327023e+02 6.580829304498790862e+02 6.379611580022861972e+02 6.150269037108498651e+02 5.886430974754636054e+02 5.577125132778238594e+02 5.230707274593015654e+02 4.794538115883797786e+02
5.184945181254253157e+02 5.796315819606621744e+02 6.341417899949342427e+02 6.738165260979866389e+02 6.861529850682408096e+02 6.633756826435604808e+02 6.196238872842806131e+02 5.679726569557099083e+02 5.169578459585586643e+02 4.644516552525728343e+02 4.095212103012735838e+02 4.267280917638208848e+02 4.221607548351335026e+02 4.153033895858717983e+02 3.997539985118013419e+02 3.723388690821530531e+02 3.424602584640817895e+02 3.120930923128944414e+02 2.885504515712885336e+02 2.523990179495049233e+02 3.110699521223315287e+02 3.689083712659684124e+02 4.212220430099771988e+02 4.616639097181549687e+02 4.817994954596051116e+02 4.853321000001866992e+02 4.756570133144441570e+02 4.588468428212058257e+02 4.717069200713964960e+02 4.897529019168188711e+02 5.049575241612908485e+02 5.216430916733717140e+02 5.400597168024532948e+02 5.587040807735269254e+02 5.707749391278510984e+02 6.299636670714378397e+02 6.941251122450285038e+02 7.551594686940055681e+02 8.054100717459073167e+02 8.374734232691672560e+02 8.440171413504382372e+02 8.338538550546948045e+02 8.184716634480442963e+02 8.022559065278198887e+02 7.984368271846987000e+02 7.958305626843848586e+02 7.888170976629768347e+02 7.766788842078501602e+02 7.927043065848469041e+02 8.039154199574641098e+02 8.151039469437680509e+02 8.424500669512257218e+02 8.926972078809876621e+02 9.237201616640988959e+02 9.213786737562846838e+02 8.880856370409965166e+02 8.382798223370905362e+02 7.807002196780010763e+02 7.204704488816478261e+02 6.604623814167058526e+02 6.022339082180360492e+02 5.473891128605109770e+02 4.955945449450229034e+02 5.537955673991458525e+02 6.029445575031181761e+02 6.360931353890924811e+02 6.436520677597443409e+02 6.228079645937623354e+02 5.841191264894763435e+02 5.355370349319146044e+02 4.824117300339618168e+02 4.276198667204892558e+02 3.722649179187769164e+02 4.188427275322699188e+02 4.651655252211347715e+02 5.111070612327868616e+02 5.563856156569491986e+02 6.009321284113920001e+02 6.448905759506357072e+02 6.859378394916212756e+02 7.195365133143094454e+02 7.385471953111159564e+02 7.323569308045782691e+02 7.004051703494151297e+02 6.504742342753128241e+02 7.053180465891666699e+02 7.639071393511007955e+02 8.246446893339008284e+02 8.845753717966643990e+02 9.401671786491298235e+02 9.861310788647335812e+02 1.014728110360315441e+03 1.014782819049725958e+03 9.862724852255838641e+02 9.403874544809631288e+02 8.848589318503788945e+02 8.249130325273100652e+02 7.639956879520473194e+02 7.054042254213613887e+02 6.505588334917454176e+02 7.138512783677302878e+02 7.756167838401050858e+02 8.317201155533439305e+02 8.758699860489507500e+02 8.992320890843457164e+02 8.915633363310147388e+02 8.601017398985608224e+02 8.193004405932562122e+02 7.829040571102043486e+02 7.493200394402033453e+02 7.237076098832234266e+02 7.015655683853099163e+02 6.777630879399536070e+02 6.497894902345881292e+02 6.184755859029668272e+02 5.838538499179255723e+02 5.480940154872836274e+02 5.184490483234544627e+02 4.760553080364689436e+02
5.121318907792208392e+02 5.731031132932051833e+02 6.260961335211513870e+02 6.619975199654927565e+02 6.661772369216992047e+02 6.338793969136875148e+02 5.793656683811276480e+02 5.209639672913619961e+02 4.798109808924342019e+02 4.373857846004938779e+02 3.878349341315675929e+02 3.901364319855138092e+02 3.790060166151798740e+02 3.737098071273924802e+02 3.574353353169163370e+02 3.194922167084143894e+02 2.799286374432031721e+02 2.441771006044236572e+02 2.469169670476461533e+02 2.496571426669927973e+02 3.193691005432378915e+02 3.858095747752888087e+02 4.433179693549880653e+02 4.907013437532299349e+02 5.216573819404255801e+02 5.343175100049378443e+02 5.342374056792608599e+02 5.285577384127689129e+02 5.350600087948209875e+02 5.509586414658220974e+02 5.635489456272449615e+02 5.764888644544590761e+02 5.918550193512515989e+02 6.060731780969427973e+02 6.073643988277848393e+02 6.508982976395242304e+02 7.170286649433609227e+02 7.683249597595309979e+02 8.019492810686637085e+02 8.122783031391909390e+02 8.013554985837545246e+02 7.804916320655273694e+02 7.591003463360917749e+02 7.389029588968986673e+02 7.398457945223651677e+02 7.387257372898834547e+02 7.318240812846653398e+02 7.180877520730115293e+02 7.348447325467263909e+02 7.453241120509790107e+02 7.565125408050779470e+02 7.972626894017184895e+02 8.638738911050363640e+02 9.030947373808342036e+02 9.068424053338092108e+02 8.765913621000651119e+02 8.277694636505694916e+02 7.699048772543454788e+02 7.086243221719194025e+02 6.470196440738800447e+02 5.884294847367173134e+02 5.335846103708798864e+02 4.817900079554788135e+02 5.389379623689394521e+02 5.863547484010548487e+02 6.178024071560985249e+02 6.260217898857974888e+02 6.113991772150151291e+02 5.768737099706277149e+02 5.304756087795005897e+02 4.784144926154136215e+02 4.242937180878470826e+02 3.692992312956606042e+02 4.171552422941688860e+02 4.634184592616175564e+02 5.074495976297001789e+02 5.488687778751633459e+02 5.888620817717419413e+02 6.322783564989437082e+02 6.759357010910621284e+02 7.150517828443656754e+02 7.425527001302924646e+02 7.474897685275773256e+02 7.239012423675394530e+02 6.790665849532392713e+02 7.315203477783189783e+02 7.900740013875064278e+02 8.513391911824799081e+02 9.104662976252321869e+02 9.631408346038992931e+02 1.003425688305945300e+03 1.022881287384847610e+03 1.011021244982443250e+03 9.747067712458755295e+02 9.242119689638321915e+02 8.664272165468939875e+02 8.059920438734740173e+02 7.464012748572362170e+02 6.892276716689958675e+02 6.343891876773537888e+02 6.974899800515523793e+02 7.597854529130466972e+02 8.178026297693533024e+02 8.661189731598259414e+02 8.969320673799046517e+02 8.998597414635007681e+02 8.755981996991007463e+02 8.382329577010827961e+02 7.975120224314633788e+02 7.579582927349467809e+02 7.239152948745578442e+02 6.976306623884405553e+02 6.691373307827109329e+02 6.381370760024086621e+02 6.032391440410646055e+02 5.614387440705963854e+02 5.145119665586018982e+02 5.002147397001213562e+02 4.726580686302533536e+02
5.054198642763763019e+02 5.663073655606253851e+02 6.186572583133721537e+02 6.527452087041133382e+02 6.520770230016787536e+02 6.107800327970121543e+02 5.335890117049262926e+02 4.547310156997883155e+02 4.229470972085391622e+02 3.939622739393659572e+02 3.664463163727929782e+02 3.490481608992666906e+02 3.319343594955729486e+02 3.352134579261991121e+02 3.270227084390662640e+02 3.053010756331228208e+02 2.772656931644640395e+02 2.414406193843194046e+02 2.746957646392618813e+02 3.002182422622199169e+02 3.502691821183095726e+02 4.059489826135209114e+02 4.610561592423111961e+02 5.114475271700160874e+02 5.522661785445117175e+02 5.777542552904329796e+02 5.890173559088526645e+02 5.938791012814028818e+02 6.018546993033659191e+02 6.142938709224227978e+02 6.251485235778642391e+02 6.350809115749303828e+02 6.467014204135659838e+02 6.615831358199352508e+02 6.707187557887324374e+02 7.026946189142755657e+02 7.489248691916258167e+02 7.819234314321276997e+02 7.917575898559500729e+02 7.784173625400427454e+02 7.537433181550615018e+02 7.238474252680297241e+02 7.005093262308614612e+02 6.803119955509203010e+02 6.849988993494162060e+02 6.860232723910131654e+02 6.798283839917035039e+02 6.632426107981059431e+02 6.819847386772162281e+02 6.904788328717862669e+02 7.222626315703263344e+02 7.920996879056161788e+02 8.517834588246214480e+02 8.901388184600923523e+02 8.948521517025294543e+02 8.653173891838405325e+02 8.165589524820121596e+02 7.582093260298009909e+02 6.961182821430826380e+02 6.336021420547066327e+02 5.750118947236913982e+02 5.201669539553607819e+02 4.683723295545640894e+02 5.237300123541081120e+02 5.667064356638987874e+02 5.917581511731241335e+02 5.985278303363510304e+02 5.901810456777313902e+02 5.620300914409350526e+02 5.184572242881254169e+02 4.683521421365416018e+02 4.171371132135675452e+02 3.663365453075927007e+02 4.159703480397064936e+02 4.600007660613985081e+02 4.991621988779207300e+02 5.319246757357349225e+02 5.597148192947141752e+02 6.053323569246085754e+02 6.535460304270900451e+02 6.993067512576151330e+02 7.364425336779656845e+02 7.567660284312179328e+02 7.485514243720126615e+02 7.126393790185969692e+02 7.501344697959007135e+02 8.134850938992663032e+02 8.789882362349709410e+02 9.373408733133437636e+02 9.861724731649794649e+02 1.019185777557289498e+03 1.026081643723592151e+03 1.002702936840011830e+03 9.597524921511904950e+02 9.055679312034527584e+02 8.459074597950643692e+02 7.841432372493565026e+02 7.255516952734640199e+02 6.707061761523755195e+02 6.189114920523279579e+02 6.817715660786790295e+02 7.444439844063477949e+02 8.039167379846982158e+02 8.552894542102620790e+02 8.912400483934391104e+02 9.012341412053688146e+02 8.804422749397497228e+02 8.420156989552342566e+02 7.945310238113986543e+02 7.434338380335892680e+02 6.961373687043057998e+02 6.653383101273180955e+02 6.336667568024225830e+02 6.015346127848066544e+02 5.680777687989373135e+02 5.250725471820547909e+02 4.627172594049871464e+02 4.659890812962891005e+02 4.692614609378408659e+02
4.987454389064209295e+02 5.597632691129624618e+02 6.127106477775281519e+02 6.483932629372792462e+02 6.516007817238706821e+02 6.169994610946276907e+02 5.580523530036635975e+02 4.922274017516553499e+02 4.767325823735348536e+02 4.534667939459134232e+02 4.239268067121981858e+02 3.862282478877562539e+02 3.155295343005325321e+02 2.994725420231512203e+02 2.840923052002448230e+02 2.688553095805822295e+02 2.537572339877643799e+02 2.387045984945442569e+02 2.806663443581203978e+02 3.211868040021815318e+02 3.680181443203881599e+02 4.193675843195782704e+02 4.724038205160683219e+02 5.241093481190648617e+02 5.710333068437111024e+02 6.092294475574518628e+02 6.344937671693960510e+02 6.498790536784284768e+02 6.626382360287298070e+02 6.759830799193890698e+02 6.866773371901502969e+02 6.960122153305305801e+02 7.052940730559149642e+02 7.209737992254084702e+02 7.359646182120534377e+02 7.583639255430404091e+02 7.815235758173577096e+02 7.884120990656128924e+02 7.697511077218753144e+02 7.350807749847604100e+02 7.019531931287829138e+02 6.652565298228277015e+02 6.456641660597413193e+02 6.254668960084584342e+02 6.335585141652405810e+02 6.379759806643983211e+02 6.340661869770527801e+02 6.114481960532161793e+02 6.356979720991578233e+02 6.622605932882063371e+02 7.292405397805092662e+02 7.929985707515301101e+02 8.474475730179857464e+02 8.826456746784441521e+02 8.853521529229514044e+02 8.548879720875203247e+02 8.054328554313622135e+02 7.463611767417604597e+02 6.835552619442280502e+02 6.205093086216210168e+02 5.619189792375989327e+02 5.070739839680368846e+02 4.552793480326602662e+02 5.055186355818415223e+02 5.386221153750797157e+02 5.551399272674667600e+02 5.619464759381513659e+02 5.580853144795062235e+02 5.364369079392728281e+02 4.952218354459640750e+02 4.463794557454259575e+02 3.997162621864964649e+02 3.633754524316652805e+02 4.066457348933663525e+02 4.409786688660311142e+02 4.695384096772480120e+02 4.924645250036933248e+02 5.082135006771143253e+02 5.655967123177834992e+02 6.222116954846150065e+02 6.763208926757735071e+02 7.232505456318332335e+02 7.587540977067220638e+02 7.765702687035092140e+02 7.782997406496540407e+02 7.953198528772331883e+02 8.540629106020808194e+02 9.116079861623363740e+02 9.642561136784236169e+02 1.006703857606820748e+03 1.030727832979125424e+03 1.025084824048853307e+03 9.928586585823277346e+02 9.444518743671940229e+02 8.872105423881517936e+02 8.265576251653820918e+02 7.668225911561669363e+02 7.099027309721730035e+02 6.558737706290440883e+02 6.040791241649961876e+02 6.659462640246073306e+02 7.287090828096966106e+02 7.891668311454675404e+02 8.426776363226874764e+02 8.823202939004946757e+02 8.977086741438080253e+02 8.796867078778925588e+02 8.399094314061713931e+02 7.853822499925499869e+02 7.159573500784354110e+02 6.526043512107772813e+02 6.160154159304878476e+02 5.817656312928855868e+02 5.494208473360969265e+02 5.186682300785460029e+02 4.888431250056358408e+02 4.594482196091595370e+02 4.956591561793658229e+02 5.191025909124454074e+02
4.918345578695179938e+02 5.530654969071341611e+02 6.075235294034434901e+02 6.472820228946426369e+02 6.592804532112270408e+02 6.337211390674757467e+02 5.835380472939998526e+02 5.342924679979951179e+02 5.300996749130653143e+02 5.103475231619128749e+02 4.796625126367450207e+02 4.399898400420988196e+02 3.852412162710327834e+02 3.591058180839420970e+02 3.354496147413378253e+02 3.088052660525943907e+02 2.769844794320149504e+02 2.359915766388971861e+02 2.811594433859839341e+02 3.264053910016044142e+02 3.739845761166787383e+02 4.242532425030800596e+02 4.763647954973481546e+02 5.287523901756169380e+02 5.792995378277952341e+02 6.254620324934135169e+02 6.644355048778755872e+02 6.933336585930236424e+02 7.144729789185495292e+02 7.324470404329874782e+02 7.453729912524911470e+02 7.556286383532963100e+02 7.655640840619796563e+02 7.788341560493870475e+02 7.914461923134086874e+02 8.024535825075328148e+02 8.043594084359431235e+02 7.838934188936394776e+02 7.419163758729987421e+02 6.848999760783397051e+02 6.482917157371906569e+02 6.104114969239960828e+02 5.938665181459131190e+02 5.736723894437781155e+02 5.851685883700559998e+02 5.942563103707416303e+02 5.976336579992321276e+02 5.889525682667032243e+02 6.339103660459095408e+02 6.806081259106177868e+02 7.380143909007634875e+02 7.962901670947461525e+02 8.465219363448597960e+02 8.782053124217209188e+02 8.776469743642059029e+02 8.453857770419717781e+02 7.947665992675271127e+02 7.347241021542292856e+02 6.710418084479036906e+02 6.076900290926121215e+02 5.490996245838646246e+02 4.942545858359935096e+02 4.424599464218324556e+02 4.808867672325582703e+02 4.993724299334504622e+02 5.087560085102492167e+02 5.187760738112299350e+02 5.202598069977672139e+02 5.033591190566125420e+02 4.612646636231902448e+02 4.068911961333814702e+02 3.574688930471881463e+02 3.604147523990134232e+02 3.803778303718026450e+02 4.005765937577005502e+02 4.212762211664926326e+02 4.425207066746413034e+02 4.646806502469872271e+02 5.232714599132046942e+02 5.866237089838922429e+02 6.489481394237496943e+02 7.022960102328622725e+02 7.491001872026844239e+02 7.883790329842546498e+02 8.175407720249822887e+02 8.463590103487683791e+02 8.932202876432559151e+02 9.428186601120403338e+02 9.890267365369288655e+02 1.024324496216740954e+03 1.037743745960000297e+03 1.020012818978262317e+03 9.806827616810915060e+02 9.279627536293152161e+02 8.676408677951792470e+02 8.042873285852389245e+02 7.456957298636278892e+02 6.908501034931783806e+02 6.390553097846961919e+02 5.898103134459606736e+02 6.484012003840042553e+02 7.117541589487465217e+02 7.728989726962664690e+02 8.277076735317967859e+02 8.699527736530739048e+02 8.906166721940935531e+02 8.780758378577618259e+02 8.411430309443974238e+02 7.907815434353025239e+02 7.344642549231097064e+02 6.815468525892578100e+02 6.370196639723932321e+02 5.953350387135407118e+02 5.548888571895967061e+02 5.158913140433011222e+02 4.807222538755057712e+02 4.561880286640683835e+02 5.095382345187512101e+02 5.519215602401638989e+02
4.839630142334742118e+02 5.450425483697705431e+02 6.012251988642377682e+02 6.463073359695304134e+02 6.711471353997178539e+02 6.646064847048236288e+02 6.351181283142024085e+02 6.046084439320784440e+02 5.871479320334657359e+02 5.634024733276338566e+02 5.290624814254023249e+02 4.869471443543217788e+02 4.392543825890030575e+02 4.027384133977107012e+02 3.666513265378984556e+02 3.266079745305892175e+02 2.826499731250809191e+02 2.332801934956935668e+02 2.786468444403262765e+02 3.247744486154979313e+02 3.725224929790206829e+02 4.222059651489869907e+02 4.736535155216121211e+02 5.261662195110817493e+02 5.785659922120607916e+02 6.293051135352983465e+02 6.765767808376097037e+02 7.183913817641056312e+02 7.524376706069569991e+02 7.790244834048621669e+02 7.973922508812826209e+02 8.103722978202833929e+02 8.207092539603944488e+02 8.312325200891833674e+02 8.376187022080450788e+02 8.351122670527325909e+02 8.149554436411623328e+02 7.740967239129008703e+02 7.145125112875742843e+02 6.356550797753159259e+02 5.935904175303999182e+02 5.586170156529075257e+02 5.452534875410234463e+02 5.244274465112110875e+02 5.387131386011855056e+02 5.523434251204228076e+02 5.634022614062502043e+02 5.675642707963947942e+02 6.221024874839835093e+02 6.787719619249809284e+02 7.395549783587633783e+02 7.980807430847306705e+02 8.464300450630805699e+02 8.751306128026694751e+02 8.710059319839792806e+02 8.367018085673237238e+02 7.848355198338371110e+02 7.236555330705685947e+02 6.584779871484251998e+02 5.951261355076002246e+02 5.365356635202615507e+02 4.816905912764959794e+02 4.298959531742243598e+02 4.483074382073646689e+02 4.507807600168319482e+02 4.516116437555686502e+02 4.719432506931085527e+02 4.813146335178884669e+02 4.688048992543834288e+02 4.237232939297140888e+02 3.515795070081412632e+02 3.545240076315072884e+02 3.989586555323498942e+02 4.294616606865048425e+02 4.523856774792094484e+02 4.722377036713824623e+02 4.864192424678859084e+02 4.909493630497318577e+02 5.344821721518557069e+02 5.796688090523000483e+02 6.267391283499383690e+02 6.759832961431211515e+02 7.277768145843861021e+02 7.826207451124809040e+02 8.296222252370970409e+02 8.722050388919014949e+02 9.176047812992023864e+02 9.635799405188394076e+02 1.005185909061834195e+03 1.034390328334619426e+03 1.038802767481868386e+03 1.013715656754282350e+03 9.695873769515868617e+02 9.142268233669055917e+02 8.532228580667215283e+02 7.905828339240921423e+02 7.319912940930430523e+02 6.771457371927974691e+02 6.253509904564083399e+02 5.761060003563363807e+02 6.346968722081591068e+02 6.973989127441233222e+02 7.585540492262198313e+02 8.140295195496519227e+02 8.577339037382603237e+02 8.810021021762503324e+02 8.720945326427204236e+02 8.381758929344651960e+02 7.916589553803826220e+02 7.408109618926425810e+02 6.912621187969439234e+02 6.446800596104078522e+02 5.981660008356379876e+02 5.499961423846888238e+02 4.989154756004068076e+02 4.496703992884448553e+02 4.529286638491196300e+02 5.181332547615228350e+02 5.705141889069574290e+02
4.763896713219323260e+02 5.374651759349019358e+02 5.954296544597727916e+02 6.454712943331904853e+02 6.806255043740503652e+02 6.916086645897947847e+02 6.781804143344589875e+02 6.578632564422265432e+02 6.357573336737025329e+02 6.043909791825072944e+02 5.622770718832415469e+02 5.149433281315409658e+02 4.661126781259741279e+02 4.199866163186350150e+02 3.744249841539987642e+02 3.278137630347078471e+02 2.798424016964703469e+02 2.305708912193793765e+02 2.741044949860267366e+02 3.192924028417713203e+02 3.663641686846189032e+02 4.150591789147891291e+02 4.655351949580586961e+02 5.175466739585754112e+02 5.704470926269065103e+02 6.233474997997742548e+02 6.751273641829152439e+02 7.244364964906839077e+02 7.696140437316179259e+02 8.088030432267978540e+02 8.378724594980092206e+02 8.564772125492252144e+02 8.680541011989855633e+02 8.753193247560438977e+02 8.731147733533315431e+02 8.550223300886810875e+02 8.190660077175695051e+02 7.693930473720841974e+02 7.100209296365707132e+02 6.460460237668194168e+02 5.873827410641035840e+02 5.287919836720590183e+02 5.016065243748038824e+02 4.773566027010043058e+02 4.935262835538630384e+02 5.104361790243346491e+02 5.282128301045681837e+02 5.471202433140266521e+02 6.057109535050087743e+02 6.690634454824730710e+02 7.387739331784478054e+02 8.006255439360936634e+02 8.474215343253974879e+02 8.727514873196096232e+02 8.647316872073577088e+02 8.285975811157805992e+02 7.760762581619355842e+02 7.142752681268601691e+02 6.461301037746268321e+02 5.827781809587708040e+02 5.241876493324281228e+02 4.693425520226525123e+02 4.175479153210297909e+02 4.055971638084578217e+02 3.937085685236066297e+02 3.819011880325541028e+02 4.260041615757432396e+02 4.455729295459340165e+02 4.413113120261462541e+02 4.047135660064052445e+02 3.486361742308976659e+02 3.853350177370863889e+02 4.259488769323376118e+02 4.621541081346740043e+02 4.902989412303828090e+02 5.115895325164102019e+02 5.233821651102416581e+02 5.222034054106135272e+02 5.640769239407264877e+02 6.069705638620114314e+02 6.519334377974563495e+02 6.986950991595010692e+02 7.464235368629040295e+02 7.939394383393184853e+02 8.388737944210547539e+02 8.831848544631328650e+02 9.284445270863565156e+02 9.729791197860265584e+02 1.012041735211407627e+03 1.037282620159870930e+03 1.035624596913903815e+03 1.005947050069231182e+03 9.587539375450327270e+02 9.016734255042018731e+02 8.400258231413528165e+02 7.773746882823738815e+02 7.187832086635457927e+02 6.639377139656850204e+02 6.121430021952531888e+02 5.628980093111524639e+02 6.214888771474612668e+02 6.842098990445596201e+02 7.455070288763075723e+02 8.012089502740127500e+02 8.452404641934189158e+02 8.690270643661875738e+02 8.611220079174310058e+02 8.283993573786931393e+02 7.836385527529060937e+02 7.352251019710271294e+02 6.883245332537466084e+02 6.448106750412255224e+02 5.983087078360834994e+02 5.474573739365481515e+02 4.956626873725364817e+02 4.464176145365563002e+02 4.840706136910579289e+02 5.332329902045185008e+02 5.826313399862414144e+02
4.674927932249061087e+02 5.285904443171624507e+02 5.878831605421055428e+02 6.417479706729664031e+02 6.848168870296996147e+02 7.101858384480274253e+02 7.107893245807262019e+02 6.965232780465823907e+02 6.693597440680580348e+02 6.294764576563900391e+02 5.816855308086502419e+02 5.301359949588343170e+02 4.777406283794680917e+02 4.263131156240671089e+02 3.757561671103073877e+02 3.258270823512153811e+02 2.765451390829644538e+02 2.278647006571399061e+02 2.699302200468443402e+02 3.134640678695384395e+02 3.586518637653676365e+02 4.057233595240654154e+02 4.549688152110027772e+02 5.061950578253275239e+02 5.588540096457043092e+02 6.125549819864771735e+02 6.667211407423163791e+02 7.205652833547998171e+02 7.727563796278583368e+02 8.209010737656619767e+02 8.615120619429512772e+02 8.900053059378714124e+02 9.046408419691174458e+02 9.083353846024450604e+02 8.952076867857172147e+02 8.637051578546264636e+02 8.189193766925895943e+02 7.653693643488542193e+02 7.071996407168599035e+02 6.485506142678532342e+02 5.935084826116092245e+02 5.435344961593336848e+02 5.028261635252926567e+02 4.636851306623369169e+02 5.034301887625518361e+02 5.380547856449331903e+02 5.685101137422490183e+02 5.976567580948216118e+02 6.460422633334436568e+02 7.006873685221268033e+02 7.578917406053901686e+02 8.103671113271284412e+02 8.506038942011574591e+02 8.701254475153327803e+02 8.574823727050199977e+02 8.201890982261744512e+02 7.687519374314085780e+02 7.103745206549680233e+02 6.503033265884041612e+02 5.937800592907907458e+02 5.426859209874161252e+02 4.974843989040693941e+02 4.583756843376451116e+02 4.362018273890143973e+02 4.076415781720157270e+02 3.703079946289568056e+02 3.955039377285990554e+02 4.142441047580132363e+02 4.173555400619499665e+02 3.901194953131005718e+02 3.456940077154163191e+02 3.919149919048768993e+02 4.351721054231244352e+02 4.739276167647753368e+02 5.067267243128056862e+02 5.326300436714873285e+02 5.495086927884999568e+02 5.589655349168958764e+02 5.912785985489176710e+02 6.304114682344962830e+02 6.737494406724133569e+02 7.186602127004249496e+02 7.625002171806670503e+02 8.030607903175791762e+02 8.402707314554429558e+02 8.821451043477296707e+02 9.269602192793782933e+02 9.713644426155742622e+02 1.009793341734433625e+03 1.033399338504246089e+03 1.028713028113749033e+03 9.965998036239407156e+02 9.476820195416362367e+02 8.895617681693398708e+02 8.274233881584766550e+02 7.646076247993800052e+02 7.060162047414075914e+02 6.511707643080229673e+02 5.993760769953294130e+02 5.501310753539213465e+02 6.087219469718030496e+02 6.720747507396212086e+02 7.337475431799499574e+02 7.892568892703476422e+02 8.324344374495260581e+02 8.544388443730694007e+02 8.444745445863613895e+02 8.104400532250680271e+02 7.648004574528345074e+02 7.160081119586493514e+02 6.704947529915425548e+02 6.403548493842059770e+02 6.001010265635144378e+02 5.517519379087012794e+02 4.987336429052797939e+02 4.431691917962799607e+02 4.907325486912332622e+02 5.399364638264734140e+02 5.883750888466764764e+02
4.603939021691047060e+02 5.202227966922926043e+02 5.803786208288860280e+02 6.370789057445746266e+02 6.856644150472079673e+02 7.199876052720886719e+02 7.320900761271489046e+02 7.200211186908745731e+02 6.881457555925338738e+02 6.436360976897348110e+02 5.919745703860741060e+02 5.371096573272416208e+02 4.816051459077127106e+02 4.268613607178983784e+02 3.732752241709112582e+02 3.214796295659422753e+02 2.722335316123931648e+02 2.251619045513333788e+02 2.659123658602654245e+02 3.079781386905460749e+02 3.515119195638558836e+02 3.966994663824574445e+02 4.437707526157413440e+02 4.930161409881540067e+02 5.448112593800992727e+02 5.983337927788199977e+02 6.534386670665290922e+02 7.100720867011964401e+02 7.673914721392468437e+02 8.218629214079455778e+02 8.699884052945659505e+02 9.073222775559120237e+02 9.279700041956643872e+02 9.278262574423430351e+02 9.047668294933351945e+02 8.654589661554821305e+02 8.156639061263872463e+02 7.600084253865913979e+02 7.022208725694870282e+02 6.453015913628703402e+02 5.914052367352720694e+02 5.413774728363368922e+02 4.952257567581571607e+02 4.503886116738453325e+02 4.963200884642125743e+02 5.405018344575263427e+02 5.831254665055340638e+02 6.259697732063470994e+02 6.739149890014211906e+02 7.248115585594416643e+02 7.752486453292844999e+02 8.199149770227427325e+02 8.521142300654847759e+02 8.633997278129965025e+02 8.462609221973125386e+02 8.087766168655795127e+02 7.588966972994612661e+02 7.032357019538002305e+02 6.471024977398787996e+02 5.947909320611473731e+02 5.489656408574502393e+02 5.107016598608636286e+02 4.759783270845874767e+02 4.423986833019970959e+02 4.022854368583841733e+02 3.587523150070524025e+02 3.474313139319936568e+02 3.816012077163247795e+02 3.910946261368768546e+02 3.724340806081286814e+02 3.427533963731160043e+02 3.915549480122948580e+02 4.346340765535272794e+02 4.719889652774896263e+02 5.039764776926028844e+02 5.293152351964787385e+02 5.499444528570652437e+02 5.681023551687012514e+02 6.023473680128882961e+02 6.447872728043088273e+02 6.911016780782670139e+02 7.364841291042037028e+02 7.762531828184122560e+02 8.059159152149026113e+02 8.235233649293577400e+02 8.655805856867940520e+02 9.125822123078604591e+02 9.591703755735694585e+02 9.991340728823682866e+02 1.023408904494260355e+03 1.018491869113648477e+03 9.857487427316405046e+02 9.361934198371830007e+02 8.775980333941267872e+02 8.151800947745323356e+02 7.522360837575290589e+02 6.936447210794880220e+02 6.387993268309552377e+02 5.870046551764279457e+02 5.377596414366948920e+02 5.996895827830898043e+02 6.627765551076653310e+02 7.240107354716818691e+02 7.787105181495986699e+02 8.198086205332862164e+02 8.367144860101126369e+02 8.219355919647365454e+02 7.842726264319833263e+02 7.348384946077412678e+02 6.806592543525298424e+02 6.262044260187445843e+02 6.187778819165631603e+02 5.914812391176305937e+02 5.486372583901301141e+02 4.970843832926395862e+02 4.399242990653247602e+02 4.927973812364670607e+02 5.436665490378821914e+02 5.913505643013945701e+02
4.509740577994446653e+02 5.095730096212215017e+02 5.714417110983229122e+02 6.302339373093534505e+02 6.823398946178750748e+02 7.221904320997085733e+02 7.421036869984392297e+02 7.324900476659227024e+02 6.991938009870484620e+02 6.521036699781641346e+02 5.977238838215907890e+02 5.402794199375393873e+02 4.823681789651732288e+02 4.254219433048534142e+02 3.705760783456971694e+02 3.187804745340450268e+02 2.695343906603764594e+02 2.224627821037557851e+02 2.620259345073621375e+02 3.027766515722555027e+02 3.448423982178407527e+02 3.883759546827866984e+02 4.335632835784850840e+02 4.806344729061501084e+02 5.298798968376772791e+02 5.816751439924368015e+02 6.365212311452313543e+02 6.951133273479674699e+02 7.584674812668150707e+02 8.177554207171760936e+02 8.705783960145660103e+02 9.127236741522081047e+02 9.375676823844266892e+02 9.356004105423101009e+02 9.077387487982874745e+02 8.639138603991809759e+02 8.109524141579701109e+02 7.536399771871627991e+02 6.953502281179606825e+02 6.384043647008825246e+02 5.842175724946554283e+02 5.331122811850153766e+02 4.846265833403948591e+02 4.376476368053114356e+02 4.884665478580650984e+02 5.391098940820199914e+02 5.893433842120282407e+02 6.394303099920969089e+02 6.899684373234995292e+02 7.395068565082896157e+02 7.849380151140960606e+02 8.216614018961620332e+02 8.438362578264417380e+02 8.476810038523813091e+02 8.316270427407038142e+02 7.959882411476472726e+02 7.474843987834659629e+02 6.924647292724674799e+02 6.362271996527579176e+02 5.833731660995308630e+02 5.381547132551272625e+02 5.094259331370535051e+02 4.818762169911864817e+02 4.508200944493342490e+02 4.143582800551376977e+02 3.744841475047551853e+02 3.362637557691920733e+02 3.594515174578029360e+02 3.613391204301835273e+02 3.368746874710947168e+02 3.398137530483821820e+02 3.858964915445370139e+02 4.225304391145147633e+02 4.516870365744977676e+02 4.771336914712799739e+02 4.991697355101757694e+02 5.209185340129945416e+02 5.415377480305774043e+02 5.896197755152952595e+02 6.430976427201944716e+02 6.969883387785881723e+02 7.439423505861548165e+02 7.775979352698383309e+02 7.893553803527822765e+02 7.755896530034189027e+02 8.317258821189443552e+02 8.865561275224449673e+02 9.381888234811074199e+02 9.816736498030338680e+02 1.008518416229436639e+03 1.005624184664169775e+03 9.736899426058532754e+02 9.243564222622769648e+02 8.657317445873915176e+02 8.032153452874110826e+02 7.402006278858938231e+02 6.816093193773677967e+02 6.267639635626020436e+02 5.749693005456412038e+02 5.257242734930363213e+02 5.887115618228473295e+02 6.519737582264267530e+02 7.127158803696038376e+02 7.660627394471190428e+02 8.042485790533194177e+02 8.152674885786716459e+02 7.938315266237892729e+02 7.518508472787922301e+02 6.981091107484149916e+02 6.377245039617077964e+02 5.791335498838063813e+02 5.865885687696077184e+02 5.719627804956766113e+02 5.371337774972156467e+02 4.910201600498469929e+02 4.366818429978524705e+02 4.909638435230145888e+02 5.407084821763737637e+02 5.846067160080949634e+02
4.446685742922192048e+02 5.032688234575539923e+02 5.647032235313333786e+02 6.244265675159914508e+02 6.786506299073056425e+02 7.217538613594485923e+02 7.455564818136579106e+02 7.383688519452003902e+02 7.048909447544875775e+02 6.564028145012603090e+02 6.001989354915139074e+02 5.408659094045486881e+02 4.811728809573006629e+02 4.227266173604260189e+02 3.678807364752959188e+02 3.160851247190499294e+02 2.668390551942786715e+02 2.197674627376454168e+02 2.593306019475990070e+02 3.000813004853108055e+02 3.421470476561891587e+02 3.856806194882391878e+02 4.308679638208153051e+02 4.779391590981339846e+02 5.271845769179708441e+02 5.789798068770710415e+02 6.338258682818133138e+02 6.924179339009189107e+02 7.544812102699351044e+02 8.147251648869688552e+02 8.695870819388537711e+02 9.139466285220835289e+02 9.401275583500334960e+02 9.367290201863692118e+02 9.060181084902783368e+02 8.593426373827046518e+02 8.041839970928401726e+02 7.454141103142582097e+02 6.861458856828279522e+02 6.283243989565185075e+02 5.734793170620348519e+02 5.216847489607815760e+02 4.724397402214601698e+02 4.253688688394862538e+02 4.801132344675347099e+02 5.354084809761656061e+02 5.905940660140679483e+02 6.448486146692681587e+02 6.969337743507086316e+02 7.444115470416220433e+02 7.834186777463222597e+02 8.091054321637493558e+02 8.197425679561953302e+02 8.194497296511606237e+02 8.073227713042026608e+02 7.775572839402314003e+02 7.314415318081416899e+02 6.759232181717231924e+02 6.160021598460281211e+02 5.560571723420555372e+02 4.998035727664490651e+02 4.767696386864366218e+02 4.602571966739929508e+02 4.405417980877944615e+02 4.109175316457150871e+02 3.716606188559777593e+02 3.251784654013657700e+02 3.280971420260781883e+02 3.310161950703538309e+02 3.339360050058733691e+02 3.519540915752746173e+02 3.703990225435668435e+02 3.893065758279383886e+02 4.088241949611487485e+02 4.292682667598640478e+02 4.508038009999575024e+02 4.740254774555825179e+02 4.994729873273093403e+02 5.628254068549695148e+02 6.325350774266539702e+02 6.981303278931233081e+02 7.455200114627647281e+02 7.707615670056308090e+02 7.646304142430774391e+02 7.320562908872201433e+02 7.951064067781923086e+02 8.559881834362890913e+02 9.125247443041624820e+02 9.600381943635975404e+02 9.904163534846816219e+02 9.909999256479536598e+02 9.609104450040064194e+02 9.124363890619429185e+02 8.540831695252776399e+02 7.915403591880116210e+02 7.284726335409809508e+02 6.698813751938448604e+02 6.150360505683056545e+02 5.632413908419275685e+02 5.139963509380595497e+02 5.772351435844911975e+02 6.404030012267206757e+02 7.004631452229039041e+02 7.522485532404565447e+02 7.875881984922011725e+02 7.942102435610256634e+02 7.683494192984902611e+02 7.227913615209369027e+02 6.662620129758932990e+02 6.044919039144219823e+02 5.416372665690875010e+02 5.516584240517632907e+02 5.431033130975497443e+02 5.172970532901033494e+02 4.816901744078160732e+02 4.334415478353965341e+02 4.856354340254335966e+02 5.297701955761792760e+02 5.646081027161501424e+02
4.384190445928334157e+02 4.970206644464118426e+02 5.585935721370524334e+02 6.189838817757282641e+02 6.745467950903229166e+02 7.196217124711962470e+02 7.456990091738443880e+02 7.403591289200059009e+02 7.070923511879179841e+02 6.578602612557828024e+02 6.004641795622810605e+02 5.397689017190172081e+02 4.786264938253017931e+02 4.200350772335378338e+02 3.651891808107753263e+02 3.133935623175832461e+02 2.641475072578184040e+02 2.170759287218490670e+02 2.566390568903751159e+02 2.973897372530693133e+02 3.394554836912693077e+02 3.829890699528114624e+02 4.281764297329907549e+02 4.752476315362075638e+02 5.244930439399527131e+02 5.762882573124969667e+02 6.311342934180146358e+02 6.897263286991801579e+02 7.515827988409694171e+02 8.122178101281094769e+02 8.678808295955557242e+02 9.129431857291205006e+02 9.390208974426701616e+02 9.338543550444134098e+02 9.009294677515140393e+02 8.521837785725518870e+02 7.953917679651286790e+02 7.354045898824887217e+02 6.750266706265429093e+02 6.164358462886673351e+02 5.615907584203375791e+02 5.097961762896152322e+02 4.605511573578048115e+02 4.134802707059511135e+02 4.711252828791357388e+02 5.298251133020039561e+02 5.881641473176140380e+02 6.443811924376462912e+02 6.958970230695845203e+02 7.388105291005250592e+02 7.672821255351952914e+02 7.797878606073982155e+02 7.826585627162494347e+02 7.801901970960063863e+02 7.715053205800286378e+02 7.502762350909179077e+02 7.094543763981462234e+02 6.550587216738078951e+02 5.908012671732257104e+02 5.210913045890960120e+02 4.577387705511382023e+02 4.219878876559398009e+02 4.159635885003152111e+02 4.092068287270060978e+02 3.892920466724406765e+02 3.567374693570214390e+02 3.223141960464603812e+02 3.628056196149265133e+02 3.870159364613292041e+02 4.005486224714345553e+02 4.172121803292625373e+02 4.350659853583763947e+02 4.517814383659365944e+02 4.674150704364046760e+02 4.874054545729336496e+02 5.055233956443262855e+02 5.221203438782326884e+02 5.324131252911300862e+02 5.916413128980499323e+02 6.549851803790663780e+02 7.113072142389327155e+02 7.502098005712791746e+02 7.617053529478253040e+02 7.403871130953544935e+02 6.970825261297318320e+02 7.604358000125442913e+02 8.252400790444560243e+02 8.854910149504621586e+02 9.365900129716652600e+02 9.706716258215728885e+02 9.754932543492070636e+02 9.480061937438040331e+02 9.008897477728709191e+02 8.429639525560081665e+02 7.802109682587313273e+02 7.170273885421084969e+02 6.584361758571346854e+02 6.035908758874184059e+02 5.517962156583655542e+02 5.025511646289168084e+02 5.657444074418885975e+02 6.286033133835533135e+02 6.878044609446054665e+02 7.378604238970359575e+02 7.702391898786790989e+02 7.722920500547130587e+02 7.427420444338282550e+02 6.943306728153640961e+02 6.356150543624476086e+02 5.720497810037799127e+02 5.086970820292520443e+02 5.147717899288765011e+02 5.037221780163043832e+02 4.791227604319848865e+02 4.607559628249626371e+02 4.302023317391570458e+02 4.716241131548991916e+02 5.022418921744983322e+02 5.253173742755300282e+02
4.322238549815318152e+02 4.908268932140072707e+02 5.526605156842847464e+02 6.135837380566482580e+02 6.700576439110044475e+02 7.164132810409987542e+02 7.439771503514512005e+02 7.400224129521787972e+02 7.070908686093729330e+02 6.575081717641019168e+02 5.994050472225593467e+02 5.378785345922946135e+02 4.759387291521358634e+02 4.173473052710012894e+02 3.625013937414708494e+02 3.107057696592449361e+02 2.614597290495345305e+02 2.143881625079170874e+02 2.539512815125208078e+02 2.947019441743107109e+02 3.367676887289917431e+02 3.803012884625887864e+02 4.254886636425682696e+02 4.725598725140343390e+02 5.218052801901770863e+02 5.736004775897000627e+02 6.284464888528327720e+02 6.870384940513039282e+02 7.490600429497014829e+02 8.100281214145487638e+02 8.659535278432922496e+02 9.108470956309006397e+02 9.358782192593980653e+02 9.283450739418298099e+02 8.932746539657896392e+02 8.428036120559531810e+02 7.848007842396334581e+02 7.241223534679354543e+02 6.634711622857911379e+02 6.048803483365668399e+02 5.500352527903862665e+02 4.982406577615285528e+02 4.489956275658398113e+02 4.019247128098327266e+02 4.605156632536111374e+02 5.220166501661557277e+02 5.820124900683139231e+02 6.380875503177175005e+02 6.863476415943807751e+02 7.212255029010582348e+02 7.360976443544711856e+02 7.383284935177009629e+02 7.356814902185608389e+02 7.323566737946659941e+02 7.276154236879457358e+02 7.154395320460208723e+02 6.851372420266258132e+02 6.373220276236618247e+02 5.785268276423311136e+02 5.147049275701531315e+02 4.511403954938445509e+02 3.884140069486854259e+02 3.581366285792832969e+02 3.687398058031107553e+02 3.517960299195371476e+02 3.165869017129983831e+02 3.194502816915030508e+02 3.869344413419523221e+02 4.322320431208277114e+02 4.583703204395317812e+02 4.789833364865230010e+02 4.983214061201290406e+02 5.148272779115875437e+02 5.302942675671208690e+02 5.471380726696828560e+02 5.616458086481143255e+02 5.722284501488697970e+02 5.690018979901537932e+02 6.110663526278685822e+02 6.773705233570477731e+02 7.269128787879349147e+02 7.543372100130745821e+02 7.500980200063305574e+02 7.173271308813211817e+02 6.668054090676622536e+02 7.301585064878731828e+02 7.965311606869653360e+02 8.590204809548349658e+02 9.128330749508771760e+02 9.502765075040193778e+02 9.596388327385526509e+02 9.356024492605059777e+02 8.904390679808162758e+02 8.331205853265545329e+02 7.691966070883180464e+02 7.058433776855905535e+02 6.472522059322767518e+02 5.924069249193209998e+02 5.406122617808970290e+02 4.913672022756632032e+02 5.544778914096854123e+02 6.169650605195005255e+02 6.751960893544330702e+02 7.233556613096918682e+02 7.526153311543786231e+02 7.502006863392846299e+02 7.174585405992412461e+02 6.668447538150194305e+02 6.066770517712249102e+02 5.422246956078766971e+02 4.788719890759987834e+02 4.774158506963871105e+02 4.581033404608875230e+02 4.205664731065617730e+02 4.237648055110713017e+02 4.269636550953478604e+02 4.418391981348398758e+02 4.569370183090995852e+02 4.723655165687579824e+02
4.260814761725450239e+02 4.846859523762873891e+02 5.467754339611352634e+02 6.081265764423719702e+02 6.652611156837646149e+02 7.125151711809382959e+02 7.411427803653415367e+02 7.382781374580067677e+02 7.057310739182998987e+02 6.560475841792411984e+02 5.975798700706510544e+02 5.356016594854372670e+02 4.732547155360902025e+02 4.146632839614493946e+02 3.598173577931908653e+02 3.080217292063281320e+02 2.587757029227714725e+02 2.117041467195134885e+02 2.512672581500252420e+02 2.920179036798028847e+02 3.340836453079910484e+02 3.776172575445085613e+02 4.228046480204572504e+02 4.698758644672213336e+02 5.191212680956385839e+02 5.709164501394959643e+02 6.257624370248987589e+02 6.843544124053983069e+02 7.468360982303582887e+02 8.084009766097188958e+02 8.643656365398271646e+02 9.084579054667594846e+02 9.315644222793956715e+02 9.208519407384652595e+02 8.834121819691515611e+02 8.312784073710138273e+02 7.722536734121915742e+02 7.113019519327533544e+02 6.513073679500564594e+02 5.936287061945702135e+02 5.387836019456236727e+02 4.869889945861233969e+02 4.377439492784224058e+02 3.906729885033502114e+02 4.523911662138509087e+02 5.146412829698383575e+02 5.747678838084102608e+02 6.289604793393392583e+02 6.715366622683180822e+02 6.941381042637873406e+02 6.954245734310906073e+02 6.881701744144382928e+02 6.813526592265576483e+02 6.779511895826192358e+02 6.775159646279264507e+02 6.724224807055189785e+02 6.537949923648162667e+02 6.165986940135975374e+02 5.643876579855862019e+02 5.049247335848070861e+02 4.433150988575573024e+02 3.829480650220104394e+02 3.291512427762166340e+02 3.340777510178066336e+02 3.108615689455581901e+02 3.137238782610298244e+02 3.671603479019257747e+02 4.227994904665634408e+02 4.712506661214093242e+02 5.073344679804171733e+02 5.341378809468889131e+02 5.572792510074058328e+02 5.755076543300945104e+02 5.914778535182883843e+02 6.072029455043649477e+02 6.201882284653859188e+02 6.310466170260270928e+02 6.387114929712851108e+02 6.603106322642925079e+02 7.107565758320513396e+02 7.466115873040237148e+02 7.574670422451256400e+02 7.366062122765172262e+02 6.945400275986281713e+02 6.396199154490635692e+02 7.029728615586702745e+02 7.699920982303514165e+02 8.337086953091292116e+02 8.893236738469628335e+02 9.293901148633958655e+02 9.430133067755574530e+02 9.242604781141553758e+02 8.821047325885020882e+02 8.268844034549393882e+02 7.654844851040579670e+02 7.031767712533810482e+02 6.431154692189729758e+02 5.861459196069221207e+02 5.321764852069833296e+02 4.804255939704018488e+02 5.436795201845125121e+02 6.058940770791735986e+02 6.630942219262941535e+02 7.090985496586445151e+02 7.347672564992367370e+02 7.279855219940059214e+02 6.925037294599205779e+02 6.402843814278406853e+02 5.793375656231697803e+02 5.147090124985446664e+02 4.513563105430332598e+02 4.415791949962926424e+02 4.141718740760853734e+02 4.173689155154843888e+02 4.630554618354242962e+02 4.805276602735996221e+02 4.923285102485194784e+02 4.988097925863400519e+02 4.963976351717325315e+02
4.199904568141064942e+02 4.785963613839735444e+02 5.409069635686629454e+02 6.026027387743725967e+02 6.602426715350562745e+02 7.081747064325321617e+02 7.376278443590005054e+02 7.356784065164164303e+02 7.035439302247915521e+02 6.539195258660722629e+02 5.953109306315109279e+02 5.331183323221314367e+02 4.705744355630948803e+02 4.119829959333372926e+02 3.571370556263073581e+02 3.053414235533198848e+02 2.560954113848541169e+02 2.090238641419459782e+02 2.485869692969921800e+02 2.893375983323054470e+02 3.314033360977973643e+02 3.749369598640448089e+02 4.201243654789392963e+02 4.671955899715987357e+02 5.164409902220435242e+02 5.682361575307159001e+02 6.230821205106628895e+02 6.816740663473073027e+02 7.450280646473307797e+02 8.082052628525322007e+02 8.639771861224404574e+02 9.065252433380717321e+02 9.264738658489679892e+02 9.115054500516677081e+02 8.713782535099288680e+02 8.174630082976317453e+02 7.571444191081901636e+02 6.956505583411650377e+02 6.362772928606078722e+02 5.798073405451863209e+02 5.262636339688732505e+02 4.754001033757801906e+02 4.267417323183861981e+02 3.796842258764601752e+02 4.428293774472355722e+02 5.055979088295522388e+02 5.648326719162544123e+02 6.155235730406780021e+02 6.501723071096359945e+02 6.589742164676581524e+02 6.481871083156717077e+02 6.310563798005458693e+02 6.215688258119101874e+02 6.184017776613320621e+02 6.237385215301426342e+02 6.242871244100795138e+02 6.136272049138023021e+02 5.879316860072133295e+02 5.438583636707109008e+02 4.893767239450385205e+02 4.294704827961832621e+02 3.656363562053329019e+02 3.022821295393583227e+02 3.051405170197901384e+02 3.079997959278539383e+02 3.515339122176795286e+02 4.009272698205675738e+02 4.505510800573468373e+02 4.983228184449631044e+02 5.414722453073044335e+02 5.773809678605369982e+02 6.072923442093784843e+02 6.300572479712203631e+02 6.485146557247516057e+02 6.650747240154861402e+02 6.781448913424341072e+02 6.904961683268301158e+02 7.039399104921827757e+02 7.232998840618865870e+02 7.512403978501268966e+02 7.668719103705043381e+02 7.567648765893413838e+02 7.228062079371219397e+02 6.734332622611730130e+02 6.149138411685008805e+02 6.782666736445587503e+02 7.453708387017817358e+02 8.095626175479942503e+02 8.660309395561434940e+02 9.073876601306545808e+02 9.228064480290206575e+02 9.095963018421218749e+02 8.713599525605407052e+02 8.188146768195904315e+02 7.589182264939832976e+02 6.964444093863833132e+02 6.349259973962577988e+02 5.763350212203721412e+02 5.214897983714877228e+02 4.696951096645983057e+02 5.338223538828981418e+02 5.959819718352897553e+02 6.520911696701823530e+02 6.955005806527336745e+02 7.159250204868912988e+02 7.051209723896024570e+02 6.674601756135070900e+02 6.141970633484323798e+02 5.530851764254429099e+02 4.889973218680931950e+02 4.256446461822387732e+02 4.077806255232038097e+02 4.109758636546312118e+02 4.628689028570501023e+02 5.055863271774659893e+02 5.278971284685181899e+02 5.380691987513158665e+02 5.372004659283135197e+02 5.206475706573996831e+02
4.139494172378970802e+02 4.725567116767089715e+02 5.350529500536304113e+02 5.970306878788599079e+02 6.550762145903887586e+02 7.035541552217042636e+02 7.336943114139976387e+02 7.325588201708047791e+02 7.008564248342587462e+02 6.513923979963233251e+02 5.927831869636862621e+02 5.305196183687470466e+02 4.678978719579063750e+02 4.093064239533766226e+02 3.544604700343614923e+02 3.026648354268227195e+02 2.534188370961198018e+02 2.063472977128940897e+02 2.470329701919640115e+02 2.887170394393809829e+02 3.316959631797447514e+02 3.761994853965530297e+02 4.224296555935039805e+02 4.706602833765920195e+02 5.212213769259283254e+02 5.744746699867052939e+02 6.307253454164970208e+02 6.899847930192253216e+02 7.514984963764032955e+02 8.120303367365411304e+02 8.660159577445519972e+02 9.059026747217839102e+02 9.202577487999121786e+02 8.998132765460121618e+02 8.570846168520130277e+02 8.015191287335633206e+02 7.390253746328103261e+02 6.756726128565014733e+02 6.170817659366978205e+02 5.622366608082520543e+02 5.104420756146892018e+02 4.611970546255834051e+02 4.141261297511653652e+02 3.689389842741269945e+02 4.334858741349862612e+02 4.965195145999741158e+02 5.543319591938836766e+02 6.005821389821594494e+02 6.250396491069907370e+02 6.203186841850445035e+02 5.973521181588630498e+02 5.677041386875073385e+02 5.629782873164946295e+02 5.598112367677840666e+02 5.695457455931742743e+02 5.739096350240898801e+02 5.684711872703236395e+02 5.517302524602606582e+02 5.178688339634842350e+02 4.704680555469045657e+02 4.164976061412642707e+02 3.590400713563323052e+02 2.994313465578305227e+02 3.303574236551567083e+02 3.533397928798552243e+02 3.849606859211884853e+02 4.238185521745444362e+02 4.663088949353282828e+02 5.111879790752713006e+02 5.565841667214127710e+02 6.003912941672383567e+02 6.407018397665136717e+02 6.731055075605707998e+02 6.972719725898990646e+02 7.167199031972916146e+02 7.307312426446092104e+02 7.435506403940468090e+02 7.570251931836711492e+02 7.703325637397871333e+02 7.818878791875073375e+02 7.770296825954308133e+02 7.499510108449592281e+02 7.063468016277582819e+02 6.521040850332962009e+02 5.920647624956359323e+02 6.554175187580759712e+02 7.223220310110857554e+02 7.864284939571033419e+02 8.428892368634508330e+02 8.842928813669810779e+02 8.999170829873729645e+02 8.917100233642466947e+02 8.582411316032499826e+02 8.093360073536260870e+02 7.512326389783123659e+02 6.877328051174412167e+02 6.243798829613895123e+02 5.657889176415762904e+02 5.109436920403274485e+02 4.591490055752329909e+02 5.231088994852698306e+02 5.844700305942307068e+02 6.387006361625137743e+02 6.786470369611467959e+02 6.934205288711659705e+02 6.806190334054895175e+02 6.416547259181951404e+02 5.877828650380970430e+02 5.269399603265969745e+02 4.644855042914652472e+02 4.013947747886766138e+02 4.045871870085226760e+02 4.530302663834798409e+02 5.007753583967833038e+02 5.420829493815319893e+02 5.683785248449925120e+02 5.789893393862390667e+02 5.743554944077649225e+02 5.453536634422200677e+02
4.079570435162372064e+02 4.665656621010438130e+02 5.292187404130783079e+02 5.914331180545844973e+02 6.498187329709309097e+02 6.987608910114751097e+02 7.295052532803458689e+02 7.291246973108827660e+02 6.978679590614233348e+02 6.486275609522456307e+02 5.901038830242830500e+02 5.278552605472810910e+02 4.652248656046355677e+02 4.066334089467352442e+02 3.517874419638856125e+02 2.999918057065102062e+02 2.507458208903215393e+02 2.036742885367666531e+02 2.444246731975544833e+02 2.864903113389182749e+02 3.300240855765814558e+02 3.752117418177385275e+02 4.221152935219963069e+02 4.710796361279907956e+02 5.224821167420566326e+02 5.767054750758800310e+02 6.339645848666787060e+02 6.937705182027832507e+02 7.547753732291395181e+02 8.139718849790921240e+02 8.661366341256511987e+02 9.032160619429251938e+02 9.130302122060426200e+02 8.892013513811550638e+02 8.447298346082029639e+02 7.887739435935312713e+02 7.274821043314627786e+02 6.651539617155582391e+02 6.065631249960476907e+02 5.517180155669553869e+02 4.999234188151794456e+02 4.506783794709432982e+02 4.036074086290300897e+02 3.584201466874572475e+02 4.230454635269882715e+02 4.854275252982755546e+02 5.410441534457978605e+02 5.822770129399898451e+02 5.967979735584353875e+02 5.807509149767835197e+02 5.462153061705000709e+02 5.091134831768786171e+02 5.081332852306838959e+02 5.049662300490093685e+02 5.170195495168005664e+02 5.233028051860608230e+02 5.200907407921467893e+02 5.069872176296847215e+02 4.807380784083580920e+02 4.420702152396458473e+02 3.970269239958365119e+02 3.493844107056897315e+02 2.965816236156512105e+02 3.328870957682516405e+02 3.648044470734208744e+02 3.966157045008753812e+02 4.305642209109147416e+02 4.674496676611929047e+02 5.102359250979606600e+02 5.572099267887875840e+02 6.062423102928077014e+02 6.546558566992871420e+02 6.980778542168330887e+02 7.323302631832521001e+02 7.567464339960633879e+02 7.721318617690365045e+02 7.838064718501367452e+02 7.938648450197275679e+02 7.999192084541892882e+02 7.976382281779167442e+02 7.765949788272151864e+02 7.389004586217095039e+02 6.889988951710314495e+02 6.316087901938577716e+02 5.708202850722053654e+02 6.341729971497363749e+02 7.006315059419927138e+02 7.641883030478644514e+02 8.198408479464500260e+02 8.599942263809306269e+02 8.738773713430734915e+02 8.689652694698294226e+02 8.422078771954838885e+02 7.993989256856376642e+02 7.457302653953881872e+02 6.856870140518154813e+02 6.235702496242899997e+02 5.622132817673912086e+02 5.036223568825902248e+02 4.487771285181957523e+02 5.120635149020027939e+02 5.720320919914759088e+02 6.236560216707463269e+02 6.593963436183015574e+02 6.683726057360969435e+02 6.543294037584149692e+02 6.146608517184367884e+02 5.600345849567860341e+02 4.986996458153535627e+02 4.403892270517316092e+02 3.982158677664020843e+02 4.369299239305511264e+02 4.815512472062857796e+02 5.262981912298414500e+02 5.665720125129986400e+02 5.971836369343377555e+02 6.131081673021856204e+02 6.155556601244753665e+02 6.114355273898867154e+02
4.020120818925645949e+02 4.606219345625700043e+02 5.234102644801999986e+02 5.858291511216065146e+02 6.445111652742783690e+02 6.938655421650485096e+02 7.251630488201175240e+02 7.255019062772466896e+02 6.946995609039606734e+02 6.457216787845666204e+02 5.873358766127172430e+02 5.251536219853967395e+02 4.625554007778902701e+02 4.039639352281562310e+02 3.491179557470695727e+02 2.973223186591062017e+02 2.480763470055235018e+02 2.010048211100338449e+02 2.417552012985874512e+02 2.838208250931135694e+02 3.273545944152736524e+02 3.725422603112078264e+02 4.196136763866783781e+02 4.688591139260858540e+02 5.206541701891435423e+02 5.754999250872820085e+02 6.338549670996570740e+02 6.943768087962074560e+02 7.553985497868476386e+02 8.138466116786064504e+02 8.644906495458894824e+02 8.990744824047599195e+02 9.051775066940925853e+02 8.788801802773054987e+02 8.331824805078136933e+02 7.770541264283154987e+02 7.163895456588836623e+02 6.548465975024492991e+02 5.962557681756484271e+02 5.414106530404028490e+02 4.896160434208348420e+02 4.403709798662627577e+02 3.932999474797419452e+02 3.481125479026175071e+02 4.122569045203036922e+02 4.735314361462477564e+02 5.268087655051288039e+02 5.636223345022800686e+02 5.700185346837546376e+02 5.426097190193920596e+02 4.938308895176731426e+02 4.542683327093208732e+02 4.563312104414295050e+02 4.531715965180083572e+02 4.670737777407925364e+02 4.740944313291913659e+02 4.707966369053016251e+02 4.573913431937259588e+02 4.318622809940480920e+02 3.951982961982954521e+02 3.556515384161350539e+02 3.284333547355915357e+02 2.937341879568745640e+02 3.313090041053214350e+02 3.631315482070328926e+02 3.915927627900077823e+02 4.200335033256966426e+02 4.489150912107274962e+02 4.930894242825211791e+02 5.437138088231964730e+02 5.985752643560475690e+02 6.550763094764865855e+02 7.060402722486157927e+02 7.478077166988487079e+02 7.782732396009679405e+02 7.954092826444494904e+02 8.032988147546219579e+02 8.059124681242794850e+02 8.060354557052819473e+02 7.966073803157045177e+02 7.691925050363408900e+02 7.263260616507418490e+02 6.727507535284372580e+02 6.130496103967304862e+02 5.509718783028868074e+02 6.143245698718446874e+02 6.801783940474380188e+02 7.428408130010911918e+02 7.969764310727489374e+02 8.345307144933567542e+02 8.441109582768042401e+02 8.372459029576734792e+02 8.157956038571586532e+02 7.841267117304614658e+02 7.379081431501882662e+02 6.818291532751587738e+02 6.208753485846009426e+02 5.586245575512007235e+02 4.971487709180082106e+02 4.385578581031444401e+02 5.010603166025949804e+02 5.592140284929706695e+02 6.074031859544024883e+02 6.377100020133563021e+02 6.404840327868391796e+02 6.260173070439025196e+02 5.868601800144593881e+02 5.309233609036923554e+02 4.615732476379837976e+02 3.918628495703016483e+02 3.950384762337361622e+02 4.491256138407690059e+02 4.965269876503896853e+02 5.399118289804097230e+02 5.783682820906890356e+02 6.093709040815757589e+02 6.307916177035402825e+02 6.413856052118484286e+02 6.476224870199282577e+02
