ncols 119
nrows 32
xllcorner 850
yllcorner 4000
cellsize 50.0
6.378489746686192348e+02 6.159238072175933212e+02 5.922210867636124476e+02 5.674751250813380921e+02 5.420559172053518751e+02 5.239554159735824896e+02 5.133538201680523798e+02 5.078830843585133152e+02 5.024262017376165090e+02 4.968989652717609147e+02 4.899331076793752686e+02 4.804853195002681332e+02 4.666739648812445012e+02 4.446450146099081735e+02 4.098777781115357470e+02 4.076106897510741192e+02 4.029848816291776075e+02 3.981622217648824744e+02 3.923952079579577799e+02 3.840661401000541559e+02 3.741963563283389362e+02 3.601410634650961811e+02 3.375344671176528095e+02 3.022880991868374281e+02 3.371226372800082345e+02 3.802826184259153024e+02 4.286580800828249380e+02 4.799849974532880310e+02 5.314784217711915062e+02 5.792037812318361603e+02 6.178784034683466189e+02 6.407881459159303859e+02 6.469254485589461865e+02 6.431603774762489820e+02 6.313520544243360746e+02 6.132048669456959260e+02 5.898767670866864137e+02 5.592623624275259999e+02 5.077399194052130724e+02 5.216126393999529682e+02 5.357697352534582933e+02 5.503113015365786396e+02 5.652745114440732550e+02 5.808021035044162090e+02 5.970295396332077189e+02 6.140065847942796609e+02 6.318626999124523991e+02 6.507706093133726881e+02 6.709699975383822448e+02 7.295637766055504017e+02 7.929199849089100098e+02 8.626340608411157973e+02 9.344959245908834191e+02 9.962333645123577526e+02 1.043222378930943933e+03 1.068406594204981957e+03 1.071746985208607839e+03 1.067452978429078712e+03 1.059450665315295282e+03 1.043703851462904595e+03 1.015012061032587894e+03 9.732635286304116562e+02 9.222722409076419581e+02 8.642409267689876060e+02 7.990068343053656008e+02 7.356559389880756044e+02 6.770666238374836894e+02 6.222225176101688930e+02 6.038661431495315810e+02 5.857658637683130110e+02 6.134234617444951709e+02 6.463841635868895992e+02 6.656607870157380376e+02 6.553762293321420884e+02 6.162737818583633498e+02 5.606671599640571912e+02 4.964299252851843676e+02 4.298825977586710110e+02 4.664017491771971891e+02 4.943215189173671433e+02 5.158113105595394927e+02 5.347956972944230074e+02 5.508500517789763080e+02 5.668886779708271888e+02 5.827679439881388817e+02 5.986486468340278861e+02 6.146554153877940507e+02 6.307214310767061534e+02 6.463946089793506644e+02 6.606156600081818624e+02 6.743107032518439610e+02 6.844077936239090150e+02 6.846719408930198369e+02 7.339154330143184097e+02 7.857082747843693369e+02 8.405515505353372419e+02 8.991405104171570883e+02 9.556926290634926318e+02 1.008968454567538288e+03 1.055263633492296094e+03 1.095110995794306746e+03 1.123646796076958026e+03 1.130644290508155109e+03 1.109221841260611427e+03 1.067616689508480931e+03 1.013371630027247761e+03 9.519868761755875539e+02 8.886333732117850559e+02 8.300414626410705523e+02 7.751952539408630400e+02 8.294757044615246286e+02 8.672128339874193443e+02 8.761202270257631426e+02 8.510861079428137828e+02 8.058015540042707698e+02 7.496307835812469875e+02 6.886714761198146562e+02 6.267045069743533077e+02 5.681136751611519458e+02
6.910364328622335961e+02 6.720351633637567375e+02 6.500302393001142036e+02 6.261001020712794798e+02 6.006476694916284487e+02 5.825470128488452701e+02 5.764065811655333391e+02 5.701967040436891239e+02 5.637466190396793309e+02 5.567721414378369218e+02 5.483976478081208370e+02 5.375414101244148242e+02 5.226398209544634028e+02 5.016311850591292796e+02 4.732306750865144522e+02 4.706729106796103110e+02 4.649048482971249996e+02 4.583909206750460612e+02 4.494166814926691700e+02 4.351736677738867343e+02 4.164335786238462447e+02 3.882561285909645221e+02 3.486919107839664207e+02 2.994890310343981241e+02 3.443919209521170615e+02 3.911981498981321010e+02 4.406541492954931982e+02 4.922295857481438475e+02 5.444019176278167151e+02 5.945708611504293231e+02 6.388902186144531470e+02 6.720161573104514900e+02 6.868750902526860500e+02 6.882761751213123489e+02 6.794314666339995483e+02 6.624906917355855285e+02 6.385412116508866802e+02 6.067053504371517647e+02 5.625854879171622542e+02 5.764358655324175515e+02 5.875648989917692688e+02 6.021066051225100182e+02 6.145202914687972680e+02 6.300480846596456104e+02 6.488254820522848831e+02 6.658028108516631391e+02 6.824570024244936803e+02 6.955187637607060651e+02 6.969563152578232348e+02 7.255507433575004370e+02 7.889070960673027457e+02 8.586212670130772722e+02 9.290548296681580496e+02 9.862262495821930770e+02 1.023615917995812197e+03 1.033619977542950210e+03 1.026105984522045674e+03 1.017167062882461664e+03 1.012125335838749265e+03 1.004450424670699249e+03 9.893905370887670188e+02 9.618281283770611481e+02 9.210470619125073881e+02 8.709492624195288499e+02 8.150643245765354550e+02 7.583317203913710500e+02 7.040571635887062030e+02 6.545197100671205135e+02 6.132122722478023888e+02 5.681440857392075259e+02 5.511673003930920913e+02 6.029615960044307030e+02 6.369206428923506564e+02 6.370303466334250970e+02 6.035785576780237989e+02 5.517772988942936081e+02 4.908833532887556999e+02 4.268066686409157455e+02 4.769630205832468164e+02 5.193314921530061383e+02 5.529731459570198240e+02 5.792825247421330914e+02 5.993441454046063654e+02 6.176560043880868989e+02 6.348576990843343992e+02 6.517012192105873964e+02 6.685546076748903488e+02 6.854089594105221295e+02 7.013513533590388533e+02 7.145638508893191556e+02 7.258086056793657690e+02 7.299310180292275163e+02 7.182446654902248611e+02 7.700178283075166519e+02 8.225234195454374913e+02 8.777338044597465796e+02 9.304579510908503153e+02 9.768646795394732862e+02 1.014736535579945212e+03 1.044381432430028781e+03 1.076527768014270350e+03 1.101945273746213616e+03 1.109945448201294994e+03 1.092662583466136539e+03 1.052391821219601979e+03 9.985789277409057831e+02 9.379651827501963908e+02 8.755051070600708272e+02 8.146839973116804003e+02 7.562875668601967618e+02 8.115665618560506118e+02 8.512212589419427786e+02 8.633558742652339788e+02 8.407466810967479205e+02 7.970259174271603797e+02 7.417014639781490359e+02 6.810589681999296090e+02 6.190744483354991416e+02 5.604836086754996813e+02
7.326234059558249783e+02 7.205733534966816478e+02 7.036158004394968657e+02 6.835985329282721068e+02 6.628121725984302657e+02 6.459011136826115944e+02 6.393384666509901990e+02 6.321551539620987796e+02 6.244481147246267483e+02 6.161030623601196794e+02 6.066073771859715862e+02 5.951059829398685679e+02 5.805515285145505686e+02 5.624294354653164874e+02 5.429417181182703871e+02 5.335762795814572428e+02 5.235585758634658760e+02 5.124732106474070861e+02 4.970172595934530477e+02 4.734142164462593882e+02 4.415072592667982008e+02 4.001408640360628510e+02 3.514035352244379737e+02 2.966917865518579447e+02 3.450103942824769092e+02 3.941952481772685815e+02 4.449156836407887567e+02 4.971482496347462074e+02 5.501195883832390336e+02 6.021853026017219008e+02 6.506316024024462195e+02 6.913158515248181857e+02 7.177845133523962886e+02 7.274536773493571218e+02 7.241518887476030386e+02 7.107207697795823833e+02 6.889790543007992483e+02 6.596836910303813966e+02 6.211774594244452601e+02 6.339619175941770663e+02 6.424113787829343210e+02 6.561530249648053541e+02 6.663165030503972730e+02 6.818445358283696578e+02 7.026770320549986764e+02 7.204248990918126765e+02 7.358143702941185893e+02 7.471717004312828294e+02 7.518045127254902127e+02 7.568066055040093261e+02 7.925596252147106497e+02 8.668948527123191070e+02 9.329862369576969741e+02 9.813026285685149332e+02 1.002899813313559434e+03 9.938447409481120758e+02 9.731091256801344116e+02 9.576676628217152256e+02 9.565595161214852169e+02 9.546600116789636559e+02 9.489749769099956893e+02 9.364472720578296503e+02 9.113560427044907328e+02 8.727287718000378618e+02 8.252495812071279033e+02 7.734131504876032750e+02 7.207611887907097525e+02 6.697526354573207072e+02 6.217321010192683843e+02 5.757185054303052993e+02 5.350545702128662242e+02 5.863230574711275267e+02 6.198512986963751246e+02 6.221812313984969478e+02 5.922212160831976462e+02 5.437000897711720881e+02 4.856485628654726270e+02 4.237323258632118836e+02 4.776789962360018080e+02 5.265243084769255120e+02 5.689181209558521459e+02 6.042255186689643551e+02 6.310468887522854402e+02 6.520588892630759119e+02 6.704218541249241525e+02 6.882872847269032945e+02 7.063698632453703112e+02 7.252713530667024315e+02 7.434502630839260746e+02 7.587773428909405311e+02 7.715313053095107989e+02 7.754596440933729582e+02 7.578058698919664948e+02 8.013371663867769712e+02 8.505804620712602855e+02 9.098984732453716333e+02 9.558509982045526385e+02 9.871596863106909723e+02 1.000491222075619703e+03 1.003855381677646733e+03 1.036996451855038458e+03 1.067754326112922627e+03 1.082013871969548063e+03 1.071671614859184047e+03 1.034618602769871131e+03 9.821992222200959759e+02 9.221091131121772833e+02 8.593455851243832058e+02 7.967787516571430615e+02 7.381869848342640807e+02 7.938789970629245545e+02 8.350482623198953434e+02 8.505405130519037584e+02 8.308158259833871853e+02 7.888656761745201038e+02 7.344400811208132609e+02 6.740120291154953520e+02 6.114953492379793261e+02 5.529044996701821901e+02
7.545329983507926954e+02 7.555657878077934129e+02 7.484039463682639735e+02 7.355531653128244898e+02 7.203712762344600833e+02 7.075227073303805128e+02 6.994551070095476462e+02 6.906727064773695020e+02 6.811674736177710656e+02 6.712449342179965015e+02 6.608906214919143167e+02 6.494486318679811347e+02 6.359396355374274208e+02 6.200217974223714918e+02 6.032795998041491430e+02 5.898389813401603305e+02 5.738861234003152276e+02 5.549116799286102832e+02 5.281296920444808620e+02 4.918282157303582380e+02 4.491083696537825745e+02 4.010197607621483371e+02 3.488692850659513169e+02 2.938965272375773452e+02 3.424041677481974375e+02 3.919970961638356357e+02 4.428753514584024060e+02 4.950235363425018704e+02 5.480158207494259841e+02 6.008296430759359055e+02 6.516377160112494948e+02 6.975555114688514777e+02 7.343638065052559796e+02 7.567254784358457300e+02 7.626100877323605118e+02 7.558908658664522591e+02 7.395714388835586988e+02 7.160028882204453566e+02 6.845322322469136225e+02 6.951971698617348920e+02 7.010044921258914883e+02 7.132768422795479637e+02 7.211640975330182073e+02 7.366923242400877143e+02 7.589866662104345778e+02 7.772469389139461100e+02 7.922458617450643032e+02 8.034875226304202442e+02 8.103987635468175768e+02 8.154009506819006674e+02 8.321245152908520595e+02 8.813720510756030535e+02 9.438488964314362875e+02 9.787195584745679753e+02 9.788265863281658312e+02 9.493004128629293064e+02 9.129268619618470666e+02 8.943154113110498429e+02 8.967142816948062318e+02 8.982137680239485462e+02 8.980090210622438462e+02 8.962456106950392041e+02 8.871992230672935875e+02 8.643890144134996945e+02 8.270601095561262355e+02 7.803851035817287993e+02 7.287764558932276486e+02 6.754893765119867339e+02 6.224565006708016881e+02 5.703621978964206392e+02 5.195270691351356618e+02 5.703920137709687879e+02 6.039281204708942141e+02 6.080413777317742188e+02 5.809373164099963560e+02 5.355007750724821562e+02 4.802985029273098689e+02 4.206600184014742467e+02 4.752857937843319860e+02 5.258797951400504189e+02 5.706212718070448773e+02 6.082897869557700687e+02 6.377054902167566297e+02 6.593233152418982854e+02 6.771820375499843294e+02 6.957635179483345382e+02 7.149974528159981446e+02 7.382623432657176181e+02 7.616759814607165708e+02 7.850530423419658064e+02 8.063068910046637257e+02 8.228657464122990177e+02 8.340361890678461805e+02 8.668242899727656550e+02 9.047030717517682206e+02 9.463596664880857361e+02 9.762213338693190963e+02 9.844421597965344972e+02 9.664701129149457302e+02 9.267872488162757918e+02 9.836346324570249635e+02 1.027655917365840878e+03 1.051479983380762633e+03 1.048720744042465867e+03 1.015473391362061648e+03 9.648231658602767311e+02 9.053796559487706190e+02 8.425311826145874647e+02 7.793806709054440489e+02 7.207890365774547945e+02 7.755228105525643514e+02 8.174608944571696156e+02 8.368134385744226620e+02 8.215343499607964759e+02 7.817159962172022460e+02 7.283915750553659336e+02 6.685366720153820097e+02 6.065554996219549366e+02 5.453707453342971121e+02
7.477898582986252904e+02 7.692131626557030586e+02 7.786676362323041758e+02 7.771666630667245954e+02 7.692940322519115171e+02 7.601629863147529704e+02 7.516592914731036217e+02 7.404856255513068390e+02 7.280004270458447309e+02 7.157392118030187476e+02 7.047569948503073647e+02 6.943828840126921023e+02 6.827780583052928023e+02 6.685612914162593370e+02 6.517337127149515936e+02 6.335967391363359411e+02 6.095221780166381222e+02 5.786120283550584418e+02 5.398509409672161610e+02 4.954959848649519927e+02 4.474007717020303971e+02 3.967319131673294805e+02 3.444140670085268425e+02 2.911037420484140625e+02 3.381760626252350903e+02 3.870123543223429010e+02 4.370008705062663239e+02 4.881341744341753497e+02 5.402090083078015823e+02 5.926422436840754244e+02 6.442803248781323191e+02 6.932103368828533121e+02 7.366000205021151714e+02 7.706438021668147940e+02 7.904470933745398042e+02 7.945063327885280842e+02 7.873357012405624573e+02 7.733051864808268192e+02 7.542457792298386039e+02 7.601275473867003711e+02 7.643601960518903979e+02 7.739175181037721813e+02 7.797579948839601229e+02 7.952863083838748253e+02 8.179712884382754510e+02 8.362640154723580963e+02 8.511322238585605646e+02 8.627606467646442070e+02 8.714820612858627555e+02 8.787568693001314841e+02 8.954802558042896408e+02 9.330376940347568961e+02 9.698600191704821327e+02 9.814136292505709207e+02 9.568893602109145604e+02 9.035810513571467482e+02 8.543363786193648366e+02 8.357250707132729985e+02 8.361794215670104222e+02 8.383888636352089634e+02 8.392763070100252207e+02 8.457320780192272878e+02 8.487359288152637191e+02 8.420399402875956412e+02 8.188748681328538623e+02 7.794422412197312724e+02 7.298898833586461024e+02 6.751121035205289900e+02 6.182858815262818553e+02 5.611531515843229272e+02 5.044745756370742811e+02 5.544530790444636068e+02 5.873064395044191315e+02 5.923072376062704052e+02 5.680823996004659193e+02 5.260182542578698985e+02 4.742226008002110120e+02 4.175899669594594457e+02 4.719697070549906357e+02 5.209894149157826178e+02 5.629666150895720875e+02 5.969309885153346613e+02 6.202976066587358446e+02 6.359245574795090761e+02 6.503180933146056759e+02 6.694794832902675807e+02 6.912807857782263454e+02 7.200095309712683047e+02 7.455559204834411275e+02 7.803554141884267210e+02 8.162051848471552375e+02 8.509578774192516448e+02 8.816592099247859551e+02 9.161909600390630430e+02 9.496032515788563160e+02 9.766112354769915100e+02 9.866033482763649545e+02 9.710699522701777369e+02 9.351284902390997331e+02 8.832537507227951892e+02 9.418454255986468979e+02 9.911360958337493230e+02 1.022433624398307643e+03 1.026077977050894788e+03 9.962039360043427223e+02 9.472618703556169066e+02 8.885525876704332404e+02 8.258806671333231861e+02 7.626661970682469018e+02 7.040747013854160059e+02 7.587027696177706275e+02 8.008764384295960781e+02 8.214052921150499742e+02 8.091725513013361706e+02 7.717662816836775619e+02 7.201205502204210234e+02 6.612583933234444658e+02 5.996200135840579151e+02 5.378770466252279903e+02
7.193485479969364178e+02 7.595191681721651094e+02 7.884382244464424048e+02 8.034463037048551541e+02 8.052398131809122788e+02 7.998198944772077539e+02 7.897292896476604938e+02 7.737049574124901028e+02 7.553495087169392264e+02 7.386128226741850540e+02 7.273801107266185682e+02 7.204105144003559644e+02 7.129702838358757617e+02 7.012303445848689307e+02 6.829381617618811333e+02 6.572233847818222330e+02 6.228248479167981486e+02 5.822078781778419625e+02 5.367706363664734681e+02 4.882873750629538563e+02 4.382704627757020148e+02 3.878333494097672087e+02 3.377672237626003948e+02 2.883137517514907131e+02 3.335020693969199215e+02 3.805737975324195190e+02 4.287506026236121102e+02 4.779050693869299380e+02 5.280775820374690284e+02 5.790420483250587722e+02 6.301500550343596387e+02 6.801961605869556706e+02 7.273117119290817527e+02 7.688996426046804800e+02 8.015814704151313208e+02 8.212048248830371904e+02 8.271287455035330822e+02 8.256429529892255914e+02 8.205195023505178824e+02 8.242983612063721921e+02 8.291091090247267630e+02 8.367803259087438619e+02 8.431139205694257726e+02 8.586422052645577878e+02 8.789230584853138453e+02 8.962795842986032540e+02 9.107584883070584283e+02 9.226588681148419937e+02 9.327433288133927363e+02 9.430194828448966291e+02 9.583864658658520739e+02 9.810821011527579003e+02 9.972832768542108397e+02 9.864060008161374071e+02 9.473749512074783752e+02 8.882140032792862030e+02 8.158536057992205315e+02 7.808807741586681459e+02 7.775895118651397979e+02 7.781458473435518499e+02 7.730942328975079363e+02 7.885776886016444678e+02 8.010825617529033025e+02 8.068069231198885518e+02 7.992206946068776006e+02 7.705847955312077602e+02 7.249611715458939898e+02 6.701094175503961878e+02 6.109243254122275175e+02 5.503245445711165758e+02 4.898107214020046740e+02 5.379071926930784002e+02 5.681210432706286610e+02 5.717298515056420456e+02 5.515454913245158650e+02 5.134901366209217031e+02 4.662158100590306162e+02 4.145219410857736761e+02 4.660348605369532606e+02 5.089417841934920261e+02 5.418113013938018412e+02 5.662982847832294055e+02 5.823205797958164567e+02 5.927586377490202949e+02 6.006980465529237563e+02 6.217562446312196016e+02 6.469286909608546239e+02 6.782460790171370490e+02 7.045703054721778926e+02 7.529082326705878359e+02 8.027948856997292069e+02 8.536623947525063159e+02 9.009617639995078662e+02 9.427477075885409477e+02 9.753273348078556637e+02 9.923619889627959765e+02 9.843533398083967541e+02 9.536211732722822489e+02 9.070419186403009917e+02 8.496794351330527206e+02 9.118037298295269011e+02 9.644223707887762203e+02 9.995834192316357303e+02 1.005404215648483046e+03 9.777058332603304507e+02 9.301343281164789687e+02 8.720943281054378531e+02 8.096700744301624582e+02 7.465532951161661686e+02 6.879619349797069390e+02 7.430262485913104911e+02 7.844658268238397341e+02 8.029991296220074446e+02 7.933846415087233481e+02 7.589726541655915071e+02 7.098059668445315538e+02 6.526255537633284121e+02 5.918792572887945198e+02 5.304227027558670216e+02
6.889054119804122820e+02 7.387233373877818394e+02 7.801110801689592336e+02 8.098100606267909143e+02 8.239112740872010363e+02 8.214715585621951277e+02 8.054429084579845721e+02 7.790387839114044937e+02 7.484383823209375350e+02 7.213711230003235642e+02 7.110011334863852426e+02 7.136351971118748452e+02 7.159287949726209490e+02 7.099291459879465265e+02 6.905352487905238377e+02 6.598307671681650390e+02 6.201983590366011185e+02 5.745920356026449554e+02 5.254975969626387950e+02 4.749752888031130738e+02 4.245696204922039669e+02 3.754609402534221658e+02 3.289018002150906455e+02 2.855270369248511884e+02 3.290170699444572620e+02 3.735057143397152686e+02 4.187545906995479186e+02 4.648555284228598907e+02 5.121277202843085661e+02 5.606425452693639500e+02 6.100959616875865095e+02 6.597533047572311489e+02 7.084079280146526116e+02 7.543399913450214171e+02 7.953079715484923327e+02 8.286757522088028054e+02 8.517260977538020370e+02 8.648746699740436270e+02 8.720496276548694823e+02 8.807421981672043785e+02 8.884193958155169639e+02 8.975072993074401211e+02 9.063914724960399099e+02 9.205293478994483394e+02 9.383316452023203738e+02 9.541914181884790196e+02 9.677774877434144400e+02 9.793304026183909627e+02 9.894842482348425392e+02 9.993786039626570528e+02 1.010388117435140884e+03 1.020971797168453008e+03 1.019218548545514523e+03 9.916666116346758599e+02 9.442287362374875102e+02 8.831181344206784161e+02 8.139559269233106988e+02 7.506045072148428972e+02 7.227456176690687926e+02 7.220197879802690295e+02 7.097429684297989070e+02 7.291252168182363675e+02 7.480701893039482684e+02 7.638269643293317586e+02 7.691496160923476282e+02 7.533266152770823965e+02 7.136248221050653910e+02 6.603621277624815775e+02 6.003263072657615567e+02 5.378370274686670882e+02 4.754657044829523898e+02 5.206258004905538428e+02 5.440571780892450988e+02 5.428492376420291521e+02 5.245977541791837666e+02 4.911133228626821392e+02 4.498774191139468712e+02 4.114552629668435202e+02 4.516746228071078235e+02 4.806067319443192787e+02 5.016498647909050987e+02 5.192738498907490339e+02 5.321654520784572924e+02 5.398614505352434207e+02 5.328451510816701102e+02 5.614380765881336401e+02 5.917149304610092031e+02 6.252882982813385979e+02 6.610385167781610107e+02 7.196278807060499503e+02 7.829786432607005509e+02 8.526870197017467490e+02 9.138337053923255553e+02 9.605200212530448880e+02 9.904128507463277629e+02 9.956972456216989258e+02 9.735190097687507205e+02 9.326732945418895042e+02 8.798096551218869763e+02 8.198538075035032762e+02 8.836593018070635708e+02 9.385914797690795695e+02 9.766846046968638575e+02 9.857090353929212370e+02 9.601603389908465260e+02 9.138170340267380425e+02 8.562982148488034682e+02 7.939963556144956556e+02 7.309245183133479031e+02 6.723332841370743154e+02 7.255118079928864745e+02 7.639818249639439500e+02 7.786753200087368896e+02 7.726048117924020744e+02 7.427366456023330556e+02 6.974270588941525375e+02 6.429622840734783722e+02 5.837806072399538380e+02 5.230027691900626223e+02
6.565401149735214403e+02 7.126035616683176386e+02 7.616573675160007042e+02 8.000430390633990783e+02 8.224363299430963252e+02 8.214100512119393898e+02 7.984036622123128382e+02 7.614577190012074652e+02 7.153446514053072178e+02 6.657155833755159620e+02 6.586693829815933441e+02 6.779413744452972423e+02 6.926485025574125984e+02 6.956881003172994724e+02 6.822772905666844281e+02 6.521689260960607726e+02 6.106236894192049931e+02 5.622263378824648044e+02 5.106687345407832481e+02 4.586259189559269771e+02 4.076952182292766338e+02 3.585714037775294400e+02 3.140739760508332665e+02 2.827440723643400133e+02 3.234952312756969945e+02 3.651404453569261932e+02 4.065490090651028936e+02 4.483835240294457662e+02 4.918435959465976453e+02 5.371978223027763306e+02 5.842502336958988280e+02 6.324843794732801143e+02 6.811100912121918327e+02 7.290059268258751217e+02 7.746397755601216204e+02 8.162885623484676216e+02 8.524025206424133785e+02 8.822602570122938914e+02 9.048900049436273321e+02 9.232624906521330104e+02 9.372422001864578078e+02 9.501041165122132952e+02 9.610719618028143714e+02 9.747104550818748976e+02 9.907134824953714087e+02 1.004654219780829635e+03 1.016671572874237313e+03 1.027073281640194864e+03 1.036191572197270943e+03 1.044142970778300651e+03 1.050144122810440194e+03 1.050690103125633641e+03 1.034427237580175643e+03 9.977948328546739276e+02 9.465464973407048319e+02 8.857140105580052705e+02 8.192397028369651935e+02 7.558882286029888746e+02 6.972987812483091830e+02 6.734786897369716598e+02 6.511534010891753042e+02 6.685364292316659203e+02 6.914619398610897179e+02 7.163371511794086928e+02 7.349480030391115406e+02 7.323239900115310093e+02 6.994844159036227893e+02 6.486951597117789561e+02 5.884933591511647819e+02 5.246673389670985443e+02 4.613815428594585342e+02 4.996671294640487417e+02 5.133705123329166327e+02 5.066226577003066041e+02 4.851407180276827376e+02 4.495989194961501312e+02 4.053653268989431808e+02 4.083890333925572804e+02 4.216262946411466714e+02 4.349829116410919028e+02 4.485254914694896229e+02 4.623300204478897513e+02 4.764504840026118018e+02 4.909123434396232710e+02 5.056596763069235294e+02 5.527304636858383446e+02 6.019751361601088320e+02 6.512924202654419332e+02 7.005408383705445203e+02 7.563082461486311558e+02 8.161678096053200306e+02 8.774062160508228772e+02 9.329703262130178700e+02 9.757868538525727899e+02 9.984683693909690874e+02 9.914759780904888657e+02 9.592539488411870252e+02 9.115029022919152339e+02 8.546351620751879636e+02 7.929852245422365513e+02 8.575050705376593214e+02 9.139697737356653988e+02 9.545557900124343860e+02 9.671154303671397656e+02 9.439254959286621443e+02 8.987633593338545097e+02 8.414996410127845365e+02 7.789125547857643141e+02 7.157345495408918623e+02 6.571434267644983720e+02 7.063887764191985070e+02 7.391559039063533874e+02 7.479758843881368193e+02 7.440473347250741654e+02 7.219412872787440847e+02 6.827580238644404744e+02 6.325717311888743097e+02 5.758111189502361640e+02 5.156167224519085721e+02
6.270182102978817511e+02 6.863912918157290051e+02 7.397015729657568954e+02 7.829779921046334721e+02 8.094065678138541671e+02 8.086334468349858753e+02 7.813104523041527045e+02 7.374106578326824319e+02 6.822059118396061876e+02 6.164694242060276110e+02 5.757189601626338344e+02 6.286938793544563850e+02 6.565963447229677286e+02 6.661076239610417815e+02 6.591954777354119415e+02 6.341971197397886044e+02 5.934157998075941123e+02 5.434940502449229598e+02 4.898878279714573409e+02 4.364877118711908679e+02 3.852956554727767298e+02 3.320325608061903040e+02 2.771857764548308865e+02 2.799635469635871345e+02 3.184480864869950665e+02 3.566474485829742207e+02 3.921890747966283470e+02 4.276512104186101624e+02 4.669403480519578693e+02 5.092472889198520534e+02 5.539634371739418839e+02 6.005146245526658504e+02 6.484141809522699305e+02 6.970312963343064894e+02 7.451096912447203522e+02 7.913987153781998813e+02 8.349843712992943665e+02 8.753069066369823759e+02 9.116696916596237088e+02 9.436343949383536938e+02 9.687908012890346754e+02 9.879665459426609004e+02 1.001742938527975980e+03 1.014940585046369847e+03 1.028433632156165686e+03 1.039427504771883605e+03 1.048861057440291233e+03 1.057256056650670189e+03 1.064748250131729719e+03 1.070641193336311062e+03 1.072733915967585745e+03 1.065549825724194534e+03 1.041151914901924329e+03 1.001310453111148831e+03 9.501665102793881488e+02 8.922935899267176865e+02 8.321385806817417006e+02 7.743795256439083232e+02 7.218795965855103987e+02 6.775874922001504501e+02 6.299092359162177672e+02 6.099465323388288880e+02 6.311481314997232630e+02 6.653345856718996174e+02 7.001908777350460014e+02 7.112129773880765242e+02 6.858298968219124845e+02 6.378286312908380751e+02 5.772873543799564686e+02 5.108956849009709913e+02 4.475430702243154997e+02 4.752908461969079212e+02 4.782859355563625741e+02 4.663248141097017765e+02 4.398108160515126315e+02 3.993191956649597500e+02 4.023420478224570616e+02 4.529844950319002805e+02 4.771869768695505059e+02 4.930116687438856502e+02 5.054139715208119696e+02 5.162539727553012199e+02 5.263923573812073755e+02 5.325545133355914231e+02 5.229849217134355968e+02 5.722298017128244965e+02 6.231525445780791870e+02 6.757003284084465804e+02 7.299680760059055729e+02 7.871737829208356061e+02 8.460053858674745015e+02 9.034341130626132781e+02 9.539541257164748913e+02 9.900256337590848261e+02 1.001424546945100019e+03 9.818286812293791854e+02 9.417091819160033310e+02 8.892457805365589820e+02 8.301400893858990457e+02 7.682787618924021444e+02 8.328598482178193763e+02 8.902643997994429128e+02 9.331165838138076651e+02 9.497491024786729668e+02 9.296326160214043739e+02 8.857750326465749140e+02 8.283868265691235138e+02 7.642981039054527628e+02 7.009448391485624370e+02 6.423538099824864958e+02 6.856436985808902591e+02 7.079670784671293404e+02 7.099304931158585532e+02 7.055623106629637959e+02 6.904385421894755837e+02 6.613463354777105678e+02 6.184671045876780227e+02 5.663990278300112777e+02 5.082557552576902822e+02
6.039841351520377657e+02 6.609131620669055565e+02 7.157878720289769490e+02 7.618438050752448589e+02 7.904334918866418320e+02 7.896486292805001312e+02 7.601712066865463839e+02 7.136195221759383003e+02 6.575087928765709648e+02 5.974011939783873686e+02 5.407451226343113149e+02 5.923154259890319508e+02 6.188327712269154972e+02 6.290377984197538126e+02 6.245502703069171275e+02 6.047908091882623012e+02 5.674740006771962726e+02 5.165933560159734270e+02 4.603802773521729250e+02 4.052411346628499587e+02 3.615883079249924208e+02 3.141117989520836318e+02 2.744107516373851468e+02 2.986351784325837571e+02 3.247478368632971524e+02 3.493912993684966182e+02 3.732478601301521621e+02 3.975522819964905921e+02 4.355491353841131286e+02 4.766286023592081165e+02 5.200707599522162354e+02 5.652587389920383885e+02 6.123303018929449308e+02 6.615416266106118428e+02 7.108968971944871100e+02 7.593417339073355379e+02 8.068094964291816495e+02 8.535626153040094550e+02 8.986469471602571275e+02 9.401204214351679411e+02 9.754571730056815113e+02 1.002863031349589050e+03 1.020807055066680959e+03 1.032478193996066693e+03 1.040221326827422672e+03 1.046133748191558198e+03 1.051419410657182652e+03 1.056842958776838941e+03 1.062714016516491938e+03 1.067847447881139033e+03 1.069760469733269929e+03 1.063574934753467915e+03 1.040736528467197559e+03 1.003022165202229189e+03 9.543786450834364814e+02 8.993468858599851501e+02 8.421185701826432251e+02 7.860827414396304675e+02 7.332071154850111725e+02 6.839571643462630846e+02 6.362356954247053409e+02 5.907422487832908473e+02 5.725578818634895697e+02 6.160903642868838688e+02 6.701743966133518597e+02 6.930561386718636641e+02 6.760298796152929981e+02 6.310190227167793182e+02 5.701909043253305072e+02 5.015425145931593534e+02 4.339042148475816134e+02 4.446510411710241897e+02 4.388859840052698473e+02 4.251308176643931915e+02 3.932754112158644944e+02 3.962969837312142545e+02 4.525273429017307194e+02 5.008951684376467028e+02 5.302778925161537700e+02 5.484521494484896493e+02 5.602361711234809718e+02 5.680211755923638748e+02 5.726296164260932073e+02 5.686880965242734192e+02 5.410853183042222554e+02 5.903301007035948942e+02 6.421240571867271001e+02 6.969249149116591298e+02 7.538582031469413778e+02 8.129814134080019130e+02 8.716658941994955967e+02 9.264419843605120377e+02 9.718329323086277327e+02 9.998402262845222594e+02 9.991949608655512520e+02 9.702582472565760554e+02 9.240670476646527050e+02 8.681471044610219678e+02 8.075254030887929275e+02 7.454293840472137163e+02 8.089029499824378036e+02 8.665893743048321767e+02 9.114545883322406326e+02 9.332105282521739582e+02 9.184031109687329035e+02 8.763085193567592341e+02 8.190609363019810871e+02 7.550524666430973184e+02 6.903500550217124783e+02 6.278920071371168206e+02 6.597862580223551277e+02 6.692029079582721351e+02 6.649012773220291592e+02 6.586268754115799311e+02 6.468043161995730088e+02 6.273756847262727661e+02 5.966474188600016078e+02 5.534915724018669607e+02 5.009154725210324273e+02
5.735270047536804441e+02 6.308731186283619081e+02 6.894779306337851494e+02 7.385545572096078786e+02 7.686434707804531854e+02 7.675398849071685845e+02 7.367149425812909840e+02 6.887842683984675887e+02 6.318753189164425521e+02 5.712009766372070771e+02 5.099923610825668447e+02 5.580556507018980028e+02 5.803301125003596326e+02 5.881960099349281563e+02 5.832919643814659594e+02 5.652701698221685547e+02 5.316565632955372394e+02 4.799777150334797398e+02 4.187673899565553484e+02 3.532333372782146625e+02 3.172572890522919806e+02 2.688888873508900019e+02 2.716362154558801763e+02 2.855786030070261745e+02 2.996632489296782182e+02 3.139705377956274219e+02 3.285937433659310614e+02 3.579893021725885660e+02 3.987395539963822557e+02 4.408045708392262441e+02 4.843375859077957557e+02 5.295247444422682292e+02 5.765961424982881454e+02 6.258420925682826237e+02 6.759025420004511489e+02 7.240677961300277730e+02 7.724606433285813409e+02 8.238649676553092149e+02 8.760392727834898778e+02 9.245702360637105812e+02 9.652821709757090503e+02 9.944780287180417417e+02 1.009683878564139718e+03 1.016754939240665635e+03 1.018588202220879452e+03 1.020164724134803009e+03 1.022016675415476584e+03 1.025125468664974733e+03 1.030681901846215169e+03 1.037021796845709559e+03 1.042216749484867933e+03 1.043543034601615318e+03 1.031583555363210735e+03 1.001286417669061393e+03 9.573252928892873115e+02 9.051376510063739715e+02 8.493477145098410119e+02 7.933426108470189320e+02 7.391601558188216359e+02 6.876964756054826466e+02 6.391641037661925111e+02 5.945309723714930215e+02 5.557792908309132827e+02 6.088012863790735310e+02 6.553455319953447997e+02 6.802202490374980925e+02 6.686055699138386217e+02 6.269736394580240813e+02 5.663129008040533563e+02 4.901349368835462883e+02 4.204245835023087352e+02 4.072456719677237515e+02 3.941527041157536928e+02 3.872348211689445066e+02 3.902546907650583421e+02 4.429690118641892127e+02 4.957056089208198841e+02 5.434936580244998368e+02 5.781221688896619071e+02 5.993434256924761030e+02 6.113095249468931343e+02 6.163301308320474163e+02 6.148668676713105015e+02 5.997373817229637325e+02 5.600900210939022372e+02 6.093346735473064655e+02 6.611284573083100895e+02 7.159722914907200675e+02 7.745614609515513393e+02 8.368641271407457225e+02 8.955553183352551514e+02 9.475758794257606041e+02 9.871705186771212084e+02 1.005862978022701668e+03 9.932076733101715718e+02 9.563867792853494620e+02 9.054581690791455912e+02 8.470888848543871745e+02 7.856634693149945861e+02 7.241847023159047012e+02 7.875188894920304392e+02 8.458718640653765988e+02 8.926939723239896693e+02 9.180709132867764311e+02 9.077375966920851624e+02 8.674051807405285217e+02 8.097252775554164828e+02 7.439768652873455039e+02 6.770135037632644526e+02 6.136607949706882437e+02 6.264879988368453496e+02 6.241239344594097247e+02 6.143929877377426010e+02 6.052808570544212898e+02 5.941353793218562487e+02 5.800132820671207128e+02 5.610400800856972410e+02 5.334182252400951256e+02 4.935915988384217030e+02
5.234828420699293474e+02 5.931953551245029530e+02 6.633065590869516654e+02 7.160138111753240082e+02 7.465041073321407339e+02 7.439138658784424933e+02 7.116049987445416036e+02 6.627155079208389452e+02 6.053724341812737748e+02 5.443175374331573266e+02 4.821326513012508599e+02 5.253321324082584169e+02 5.416002796441641749e+02 5.455574546555106963e+02 5.386918147278328206e+02 5.209368865829977722e+02 4.907772805825583191e+02 4.399627364054114196e+02 3.754087321568566153e+02 3.014374766938487937e+02 2.633954906620414249e+02 2.661420311425879390e+02 3.136728104221306239e+02 3.356326231205665636e+02 3.472134980512735183e+02 3.519905917596465201e+02 3.447638863396609850e+02 3.785122840139099480e+02 4.173962922591087477e+02 4.564800907823689045e+02 4.949546562268060939e+02 5.333105849713706448e+02 5.716220704595549478e+02 6.074388823623543203e+02 6.414781531572321001e+02 6.841330116844724216e+02 7.288770299203855529e+02 7.865644935586620932e+02 8.478616513887661768e+02 9.023966940176776461e+02 9.444512539790066512e+02 9.681616625572214616e+02 9.764190161576295850e+02 9.781600590218585012e+02 9.759582222274680134e+02 9.742419494655358676e+02 9.730649909658692422e+02 9.737564315888013198e+02 9.802444384334500000e+02 9.887427224598712883e+02 9.980234044616006486e+02 1.007640949669792690e+03 1.009380283040139830e+03 9.926167856308320552e+02 9.559437582670965412e+02 9.073055819167569780e+02 8.526526083500210689e+02 7.961102472793402285e+02 7.402109692933419183e+02 6.862741898368801685e+02 6.348631215544245379e+02 5.862588634191348547e+02 5.398334513174560243e+02 5.960417115972486499e+02 6.427946296605301768e+02 6.701196565785439816e+02 6.642776672572349526e+02 6.287994437894870998e+02 5.765974183944620108e+02 5.176134820852979601e+02 4.638141895808641948e+02 4.266512735043132807e+02 3.811989065964487509e+02 3.842162271977663295e+02 4.290801080102530136e+02 4.775368030688413228e+02 5.272596626140143599e+02 5.747042340865983761e+02 6.148362413509865974e+02 6.420547284778050425e+02 6.562080564907525968e+02 6.597540507703696449e+02 6.530593330399332217e+02 6.279000496073579143e+02 5.802886843017954561e+02 6.320827394088025812e+02 6.863571106526657104e+02 7.433969315522803072e+02 8.032911187258258678e+02 8.637029790179598194e+02 9.204140684251561879e+02 9.684730558361424073e+02 1.000711226593614469e+03 1.006628392950295051e+03 9.825836899254768468e+02 9.392515667670021458e+02 8.848183092568996244e+02 8.248682217428155354e+02 7.628131608384594529e+02 7.042216634427126110e+02 7.678602423863939066e+02 8.271793442097540492e+02 8.761148156228115340e+02 9.051037590829213286e+02 8.996498610677497254e+02 8.614135637752315233e+02 8.024777902939050591e+02 7.327118604260583652e+02 6.630010183167357809e+02 5.996483518169891340e+02 5.863815866044308223e+02 5.732886237038486570e+02 5.603891592548055769e+02 5.477250437046723164e+02 5.352344144819875282e+02 5.228863561917418110e+02 5.106303890494106668e+02 4.984420091683671217e+02 4.862758842704824929e+02
5.272861543076761563e+02 5.898188850725786097e+02 6.504635759710507728e+02 6.990796102492815862e+02 7.260842317868957707e+02 7.193878323863129935e+02 6.847522556243663985e+02 6.351007630394216221e+02 5.781457966230838110e+02 5.178891717585725019e+02 4.564209296030589371e+02 4.935075028526841265e+02 5.026602730119781768e+02 5.021236371810669539e+02 4.924727659030907034e+02 4.738359129344536314e+02 4.471725215475602795e+02 4.021135983117129058e+02 3.391835322974130804e+02 2.579035095198338468e+02 2.606492652526398501e+02 3.121190735344734435e+02 3.570178125612611666e+02 3.825010504863308824e+02 3.924848098956982199e+02 3.892219273870101688e+02 3.613521931217597967e+02 3.783292391432165687e+02 4.214098947124388133e+02 4.561428493481625424e+02 4.860325046116190606e+02 5.140281819324480921e+02 5.411480566618890862e+02 5.646031902545088315e+02 5.791985179635981922e+02 6.227321637441071971e+02 6.698042838821284022e+02 7.395171120838929255e+02 8.183773565786246991e+02 8.769264133368993726e+02 9.152509431007847525e+02 9.293284410932014907e+02 9.301234991201994262e+02 9.264743384285660568e+02 9.214294599156899039e+02 9.174920182616054944e+02 9.133823474290384183e+02 9.097612127427779569e+02 9.194628918201556189e+02 9.302454195935499683e+02 9.425490233806679043e+02 9.604955790422304744e+02 9.756767139469212680e+02 9.750318525079832170e+02 9.481216187324474731e+02 9.041928793501883774e+02 8.510496266084135186e+02 7.940560405296774888e+02 7.364979716327477490e+02 6.801247351079947521e+02 6.255885899975735356e+02 5.737944691917864475e+02 5.245496113890742436e+02 5.822327328148928700e+02 6.303764914921410991e+02 6.604833111790932207e+02 6.602530698663223347e+02 6.305136718167175331e+02 5.844569696711811275e+02 5.316268037851132249e+02 4.790199872059209838e+02 4.295039649958374071e+02 3.782241539357289639e+02 4.122359458639098762e+02 4.537848984079602133e+02 4.995902498108554823e+02 5.472824426133737461e+02 5.942293391017609565e+02 6.370419221960240748e+02 6.713528400365761399e+02 6.915452759135282577e+02 6.962922356829892578e+02 6.864172890779273075e+02 6.540275625163113773e+02 6.018240926789221703e+02 6.536179357371130436e+02 7.084617798883429032e+02 7.670509223813802464e+02 8.295928639607865307e+02 8.894954584442616579e+02 9.436455685682899457e+02 9.865237662941121926e+02 1.009932577008096473e+03 1.003196421563391254e+03 9.703252398242656227e+02 9.217570119747094850e+02 8.646551676562143030e+02 8.039765603696181415e+02 7.436968458437013396e+02 6.854098379313995792e+02 7.494217231419373775e+02 8.098324450609292171e+02 8.611825586612875441e+02 8.946055042111737521e+02 8.961250769813231045e+02 8.622271988584849396e+02 8.019399748001980015e+02 7.230815223831395997e+02 6.778944041923699615e+02 6.371445612829359106e+02 6.385447765812530179e+02 6.282517602626062398e+02 6.156387613754154700e+02 6.004511729722546534e+02 5.839680554519326279e+02 5.668350403584104242e+02 5.459924276987738949e+02 5.196739551022608339e+02 4.828735793514482566e+02
5.235166085716582529e+02 5.846609409105092254e+02 6.412464475258857419e+02 6.853102557548827463e+02 7.065188225311670749e+02 6.931188608792285777e+02 6.549362180156226714e+02 6.046000609268971857e+02 5.493674768046346344e+02 4.916038481511005784e+02 4.323887961586103756e+02 4.612698468934286780e+02 4.630853993150260521e+02 4.584814441590663137e+02 4.456777182574437575e+02 4.241356158141328478e+02 3.980225712269271412e+02 3.629765697509118922e+02 3.163795339991664264e+02 2.551600828655528233e+02 2.979155357773885271e+02 3.477494991458996765e+02 3.941721932560093933e+02 4.256334257790151128e+02 4.379228663960384438e+02 4.357117273022050199e+02 4.180051914641143753e+02 3.955123952155949496e+02 4.131343062679438844e+02 4.313187882172071568e+02 4.501305759381875760e+02 4.698666555487412779e+02 4.908328451268163803e+02 5.135030139023454012e+02 5.384482954731885229e+02 6.018018434993501842e+02 6.715140444904610604e+02 7.445508049450621684e+02 8.093274219348005545e+02 8.575771305989492248e+02 8.822175022506221467e+02 8.838843507831603574e+02 8.764395200492058393e+02 8.671673554933203150e+02 8.610029931765617448e+02 8.564647470384709322e+02 8.499895317368863061e+02 8.400504347993630745e+02 8.549539803750983538e+02 8.669538814352881673e+02 8.784756563974377741e+02 9.051407713361154492e+02 9.354439944513221690e+02 9.508983788201194329e+02 9.366752426817059813e+02 8.981920618795638802e+02 8.466928465558294192e+02 7.892939320864034016e+02 7.302456967622584898e+02 6.719122875771537338e+02 6.155018631857868741e+02 5.616382413533373210e+02 5.098442231607038480e+02 5.681741167258396672e+02 6.173361016554730440e+02 6.496471128933947057e+02 6.540425465436911736e+02 6.289271570796479409e+02 5.868596040076705549e+02 5.364692232161554557e+02 4.832368945382310699e+02 4.295551242992787024e+02 3.752522318940669948e+02 4.188784734120914095e+02 4.635351542827375511e+02 5.095942648136208390e+02 5.563747419534181518e+02 6.026557178919211992e+02 6.466047689375371874e+02 6.850224460394504149e+02 7.129419192686187898e+02 7.232208952403367448e+02 7.121599042076743444e+02 6.771236031034202369e+02 6.250455333687226585e+02 6.798895987234030827e+02 7.375368562783131665e+02 7.973108234336009446e+02 8.580160628493060813e+02 9.159768549600735241e+02 9.665492166928586357e+02 1.002909265732786025e+03 1.014858702557621427e+03 9.955179584429539545e+02 9.553276266223091397e+02 9.027069404382078801e+02 8.434601249721795284e+02 7.809911116609607689e+02 7.223995447922613948e+02 6.675540496370739447e+02 7.316766570515840158e+02 7.930339580065045766e+02 8.469637883357878536e+02 8.858703135769201253e+02 8.980806228830842883e+02 8.760757740923894517e+02 8.319068953804230659e+02 7.779273364908268604e+02 7.394395111393843081e+02 7.064064818221448832e+02 6.900486848773043675e+02 6.743900228159013750e+02 6.580814728507050404e+02 6.379582729342786251e+02 6.150221057091224566e+02 5.886382402928294368e+02 5.577122072242927970e+02 5.230764376624799752e+02 4.794722262016117043e+02
5.185104344499654871e+02 5.796439113599064967e+02 6.341484038142615418e+02 6.738142632733173514e+02 6.861454578447289805e+02 6.633786022826423050e+02 6.196326938948687939e+02 5.679837819779023675e+02 5.169715895289078844e+02 4.644683021405045338e+02 4.095396249126870885e+02 4.267287150033164949e+02 4.221757743569001491e+02 4.153164817208151476e+02 3.997662303268837150e+02 3.723546446405168240e+02 3.424730934757483851e+02 3.121038702131646119e+02 2.885491454378280878e+02 2.524174325604699618e+02 3.110841095616642065e+02 3.689194673383515806e+02 4.212278773549613220e+02 4.616619258216751405e+02 4.818024895576655808e+02 4.853401594708180369e+02 4.756707761489559516e+02 4.588652574338314025e+02 4.717253346842624637e+02 4.897712503592139228e+02 5.049759387739381964e+02 5.216615062857249541e+02 5.400781314143428062e+02 5.587191930211723729e+02 5.707933537387006027e+02 6.299803848507360726e+02 6.941413925096125013e+02 7.551717188606014588e+02 8.054152220487517297e+02 8.374689657089505772e+02 8.440197352751690687e+02 8.338658696951646334e+02 8.184883936433024019e+02 8.022743211399784968e+02 7.984552417975419303e+02 7.958483080687697111e+02 7.888347924774375315e+02 7.766972988201051749e+02 7.927223906023950804e+02 8.039338345686763887e+02 8.151223615544007544e+02 8.424684815610817168e+02 8.927116448323216673e+02 9.237185431068047592e+02 9.213745277475956073e+02 8.880906653244943527e+02 8.382908490692416308e+02 7.807149961786780068e+02 7.204874685815855173e+02 6.604806228430452393e+02 6.022523228342734001e+02 5.474075274747616504e+02 4.956129595584127401e+02 5.538068493094575615e+02 6.029493634870990491e+02 6.360888861434932551e+02 6.436438518791784418e+02 6.228090814485648252e+02 5.841267697274114425e+02 5.355489559615283497e+02 4.824265154404574787e+02 4.276368070085027284e+02 3.722833325292403401e+02 4.188597053274714312e+02 4.651811190890322223e+02 5.111211048138684419e+02 5.563978462437199823e+02 6.009423610829396694e+02 6.448986619950276236e+02 6.859425223990168661e+02 7.195357431967897810e+02 7.385383224124229855e+02 7.323523074913457549e+02 7.004103028320541853e+02 6.504926488943216327e+02 7.053364612116201897e+02 7.639255539754216215e+02 8.246620094722908334e+02 8.845900315446170907e+02 9.401774774722280199e+02 9.861347965052890459e+02 1.014722455675447577e+03 1.014777136528141796e+03 9.862761750745083873e+02 9.403977292050606138e+02 8.848735966460084228e+02 8.249304273167767860e+02 7.640141025623426003e+02 7.054226400338266103e+02 6.505772481059827896e+02 7.138696315136159001e+02 7.756321400760696179e+02 8.317305788392429804e+02 8.758730467225788061e+02 8.992247405627589387e+02 8.915585921499848610e+02 8.601036747807005440e+02 8.193053619476597760e+02 7.829030072815280619e+02 7.493187910373039813e+02 7.237036174101837105e+02 7.015594900120364628e+02 6.777572304532930048e+02 6.497878542694406860e+02 6.184775552559285643e+02 5.838582330942969065e+02 5.480990890275629681e+02 5.184477719858067530e+02 4.760737226497387269e+02
5.121480088882921109e+02 5.731153633748822358e+02 6.261022242634074928e+02 6.619941451086925781e+02 6.661727816933793065e+02 6.338859853704088891e+02 5.793770541300270907e+02 5.209808942453562395e+02 4.798137238863145626e+02 4.373866695375180598e+02 3.878533487411231704e+02 3.901414615576746883e+02 3.790244312229330603e+02 3.737223325095269502e+02 3.574464515578229111e+02 3.195106313131583420e+02 2.799470520501154169e+02 2.441955152156868394e+02 2.469353816588725294e+02 2.496755572781236481e+02 3.193875151493376734e+02 3.858237302875040768e+02 4.433255579454710755e+02 4.907012850653570126e+02 5.216552129397299495e+02 5.343222521746165512e+02 5.342487928328251883e+02 5.285761530241534274e+02 5.350784234062128917e+02 5.509761753855387951e+02 5.635673602377861471e+02 5.765072790645147052e+02 5.918734339605859986e+02 6.060880194106617864e+02 6.073828134363307072e+02 6.509167122449717908e+02 7.170427100083650203e+02 7.683304863850794391e+02 8.019452577638357980e+02 8.122743619481625501e+02 8.013627800359648745e+02 7.805071964249990515e+02 7.591187609490094701e+02 7.389213735101534439e+02 7.398642091265264753e+02 7.387431209291945606e+02 7.318411226444311524e+02 7.181061666870589306e+02 7.348621920620551009e+02 7.453425266641553435e+02 7.565309554176926667e+02 7.972811040126637181e+02 8.638843379657582773e+02 9.030923734770233295e+02 9.068373148757141280e+02 8.765960582187802856e+02 8.277805944440654002e+02 7.699200648083116221e+02 7.086420003138666743e+02 6.470380586918853396e+02 5.884478993524563748e+02 5.336030249849007987e+02 4.818084225689322011e+02 5.389488399430681511e+02 5.863589365521339687e+02 6.177976670725864778e+02 6.260157601742183715e+02 6.113953860779618026e+02 5.768775682891116503e+02 5.304845886829547226e+02 4.784268330212250362e+02 4.243086160332322265e+02 3.693176459054647012e+02 4.171728368438796792e+02 4.634339508952580218e+02 5.074625923652993151e+02 5.488790752278977152e+02 5.888702945470996610e+02 6.322862371951810019e+02 6.759414615747185735e+02 7.150530979655454757e+02 7.425466909466582592e+02 7.474824884335291699e+02 7.239046397380413964e+02 6.790849995743993759e+02 7.315376519453855053e+02 7.900923820470886767e+02 8.513567196276752611e+02 9.104806221881499368e+02 9.631500286695425075e+02 1.003427382808318725e+03 1.022872600295724510e+03 1.011017976546951218e+03 9.747120531016803398e+02 9.242230892969489560e+02 8.664420895556604592e+02 8.060089016114537799e+02 7.464190635061211196e+02 6.892460786683495826e+02 6.344076022917284945e+02 6.975082720551721422e+02 7.598010349191869182e+02 8.178138155153918660e+02 8.661234963572132983e+02 8.969271048860962310e+02 8.998526626454101915e+02 8.755988554123125596e+02 8.382375395180196165e+02 7.975181593157092266e+02 7.579635115840291064e+02 7.239185910881082009e+02 6.976262360774292119e+02 6.691338077021163144e+02 6.381339320254460290e+02 6.032375095132778142e+02 5.614429023790927431e+02 5.145303811719255691e+02 5.002113203466341815e+02 4.726764832435644621e+02
5.054360580040743116e+02 5.663195853640601172e+02 6.186631361381830629e+02 6.527413117898539667e+02 6.520752553560001843e+02 6.107935221396105590e+02 5.336074263163850446e+02 4.547494303126034083e+02 4.229655118204918267e+02 3.939806885493947561e+02 3.664647309798079391e+02 3.490665755039951819e+02 3.319527740984971160e+02 3.352253590841795585e+02 3.270216712301926236e+02 3.052981558060116640e+02 2.772627323558232888e+02 2.414590339955606169e+02 2.746921337326699586e+02 3.002328626477249145e+02 3.502819773585933945e+02 4.059619445735158934e+02 4.610662705242378934e+02 5.114527412332361109e+02 5.522642878025925484e+02 5.777531004395970058e+02 5.890240295187447828e+02 5.938928732328623710e+02 6.018719531749018188e+02 6.143098711635645941e+02 6.251661947408318838e+02 6.350993261817681059e+02 6.467198350196482579e+02 6.616001560631035545e+02 6.707371703931808042e+02 7.027130335167910289e+02 7.489339143509284895e+02 7.819192227110078193e+02 7.917498624018182909e+02 7.784202233919889977e+02 7.537547051892205445e+02 7.238658398816820636e+02 7.005277408447921061e+02 6.803304101652312283e+02 6.850171218344315776e+02 6.860397704051810024e+02 6.798436916383566313e+02 6.632610254133807075e+02 6.820004110238184012e+02 6.904972474869781536e+02 7.222810461844445626e+02 7.921150428389904619e+02 8.517917254679846337e+02 8.901361723974030156e+02 8.948468331312976716e+02 8.653220639282651518e+02 8.165702597218677283e+02 7.582248291487137521e+02 6.961363353515708923e+02 6.336205566722021558e+02 5.750303093390034519e+02 5.201853685692351519e+02 4.683907441681309365e+02 5.237369275753646889e+02 5.667051503479146959e+02 5.917550005567572953e+02 5.985281480551944924e+02 5.901765318290656523e+02 5.620289459315796421e+02 5.184623714738582976e+02 4.683608243113438334e+02 4.171481677009055034e+02 3.663549599166856865e+02 4.159784924182595773e+02 4.600038798339699042e+02 4.991598917070974721e+02 5.319225592552278385e+02 5.597298390251220326e+02 6.053431544482926938e+02 6.535559237621843067e+02 6.993133039613677511e+02 7.364430845712309974e+02 7.567576732950979022e+02 7.485516566245728427e+02 7.126577936418664194e+02 7.501528844206303575e+02 8.135035085241443085e+02 8.790050186854442700e+02 9.373522012780269961e+02 9.861771945300527022e+02 1.019181520268745317e+03 1.026074297123010638e+03 1.002705577708092505e+03 9.597622478019206937e+02 9.055824648033096764e+02 8.459251735996099342e+02 7.841616518591840759e+02 7.255701098851228608e+02 6.707245907658490296e+02 6.189299066666909539e+02 6.817897593704999508e+02 7.444597124728284143e+02 8.039284509266062742e+02 8.552950070406617442e+02 8.912366492347534859e+02 9.012258869440437365e+02 8.804433203416705283e+02 8.420229394442740158e+02 7.945421269232655277e+02 7.434454153244913641e+02 6.961557833167714762e+02 6.653433506016586989e+02 6.336725466265115756e+02 6.015404418987318422e+02 5.680784065856639700e+02 5.250766114644104618e+02 4.627356740184613386e+02 4.660074959097007081e+02 4.692798755512009734e+02
4.987615962844378146e+02 5.597755351444334337e+02 6.127167232543513364e+02 6.483898291561637279e+02 6.515970357900414456e+02 6.170075285902254336e+02 5.580663939518143479e+02 4.922458163644049591e+02 4.767448796314917558e+02 4.534785583442799179e+02 4.239378183310059853e+02 3.862344011068097984e+02 3.155479489027863451e+02 2.994909566261841292e+02 2.841107198053409206e+02 2.688737241883707156e+02 2.537756485978653416e+02 2.387230131057196445e+02 2.806795825208707811e+02 3.211981675931309042e+02 3.680311287307557677e+02 4.193808809694069168e+02 4.724157180124868773e+02 5.241181931978143211e+02 5.710373462699485572e+02 6.092268090891519705e+02 6.344931898230755678e+02 6.498861257503330080e+02 6.626503964748206954e+02 6.759956076059864927e+02 6.866926169481372426e+02 6.960296061229387306e+02 7.053124876591680277e+02 7.209905544459846851e+02 7.359812669535764371e+02 7.583742509325245464e+02 7.815225332434177972e+02 7.884032012592815590e+02 7.697531975256048327e+02 7.350952177313041602e+02 7.019675426498366733e+02 6.652749444375618850e+02 6.456825806557137639e+02 6.254853106231197444e+02 6.335764618072131498e+02 6.379914053245784089e+02 6.340775975818602319e+02 6.114666106684463784e+02 6.357163867147522751e+02 6.622790079038493332e+02 7.292578859261135449e+02 7.930118143603727958e+02 8.474541452582160446e+02 8.826420874914631440e+02 8.853471192069952167e+02 8.548928825905824169e+02 8.054444243394960949e+02 7.463769570883305278e+02 6.835735330868576511e+02 6.205277232386270043e+02 5.619373938525731091e+02 5.070923985818316169e+02 4.552977626463587058e+02 5.055194498505709930e+02 5.386197937112128784e+02 5.551437807194720335e+02 5.619519874784328977e+02 5.580861496978448031e+02 5.364351060579286923e+02 4.952265330025629737e+02 4.463864077332158331e+02 3.997238463652320775e+02 3.633938670399970761e+02 4.066448251454378919e+02 4.409767995489784198e+02 4.695386894034978127e+02 4.924697447459095656e+02 5.082319152909086597e+02 5.656126158101225201e+02 6.222250576605796368e+02 6.763306615475261196e+02 7.232546166441389914e+02 7.587505920484659327e+02 7.765645536165434351e+02 7.783098314636159785e+02 7.953382675023908632e+02 8.540793653258543827e+02 9.116216850889245507e+02 9.642652979183563957e+02 1.006706321529378442e+03 1.030720693894039869e+03 1.025080325627645379e+03 9.928632352029788990e+02 9.444627969163331045e+02 8.872255010936187318e+02 8.265745433447302730e+02 7.668402654557387450e+02 7.099207626646151539e+02 6.558921852427671411e+02 6.040975387792578886e+02 6.659640624720489086e+02 7.287248628530254564e+02 7.891789184956701320e+02 8.426839218000542360e+02 8.823180034076586935e+02 8.976994572288804193e+02 8.796882176179906310e+02 8.399193137919855872e+02 7.854003929628057676e+02 7.159757646903135537e+02 6.526227658242911502e+02 6.160338305443606259e+02 5.817840459066776475e+02 5.494392619496189809e+02 5.186866446918444353e+02 4.888615396188881732e+02 4.594666342227098426e+02 4.956562487487221347e+02 5.191033060445544152e+02
4.918505966424422127e+02 5.530778584136804739e+02 6.075301255332042274e+02 6.472797927913590001e+02 6.592739340971317006e+02 6.337317239618279245e+02 5.835564619038234468e+02 5.343108826097782185e+02 5.301092138239559972e+02 5.103549056846504755e+02 4.796694697566223908e+02 4.399919098720031911e+02 3.852596308785028896e+02 3.591141271816904350e+02 3.354507377693470289e+02 3.088032695833551315e+02 2.769829329606697002e+02 2.360099912499657933e+02 2.811756693425969047e+02 3.264204292382306107e+02 3.739994479960002423e+02 4.242678519019904684e+02 4.763784283199178731e+02 5.287640243178029777e+02 5.793079463327288749e+02 6.254658105010495319e+02 6.644330893023405906e+02 6.933325276437858520e+02 7.144786563251093412e+02 7.324542914932658277e+02 7.453844178826715279e+02 7.556431702273528117e+02 7.655811565143362714e+02 7.788479949722903939e+02 7.914564473184383360e+02 8.024566473952870638e+02 8.043519633898795291e+02 7.838918111275398815e+02 7.419238740999311403e+02 6.849183906929740715e+02 6.483084036339687373e+02 6.104299115388283781e+02 5.938845852095957980e+02 5.736908040580808574e+02 5.851866477880256525e+02 5.942718066109919164e+02 5.976447104181527266e+02 5.889709828814505954e+02 6.339225985045875404e+02 6.806194643229571284e+02 7.380280485489222428e+02 7.963014459737462403e+02 8.465271078331605850e+02 8.782006516091114463e+02 8.776424907425829360e+02 8.453910792049598513e+02 7.947785184438577062e+02 7.347402202670023144e+02 6.710602230664585477e+02 6.077084437091715472e+02 5.491180391985631104e+02 4.942730004497639129e+02 4.424783610356367944e+02 4.808843500514958009e+02 4.993770568008057467e+02 5.087668523206511964e+02 5.187853669567494990e+02 5.202636409716504886e+02 5.033576038636483645e+02 4.612712200203808379e+02 4.069014880344175822e+02 3.574873076538809755e+02 3.604331670065429876e+02 3.803962449828411536e+02 4.005950083706438249e+02 4.212946357801828867e+02 4.425391212884442211e+02 4.646990648606668515e+02 5.232898745273680561e+02 5.866421235998773227e+02 6.489637012223246302e+02 7.023055300816132558e+02 7.491042562590860143e+02 7.883767642030148863e+02 8.175386473138391921e+02 8.463720725924765702e+02 8.932297094101993480e+02 9.428267299851382859e+02 9.890305587232210200e+02 1.024320911824115683e+03 1.037734432433594748e+03 1.020014169198458490e+03 9.806919723158525812e+02 9.279775414028041496e+02 8.676592824041026688e+02 8.043057431947274836e+02 7.457141444746129082e+02 6.908685181059167917e+02 6.390737243986205840e+02 5.898287280600594613e+02 6.484196149977085497e+02 7.117725735608465811e+02 7.729140863241530042e+02 8.277176598099628109e+02 8.699551640681208937e+02 8.906083876502316343e+02 8.780727554329621398e+02 8.411482676161269865e+02 7.907921265153283912e+02 7.344761220359322351e+02 6.815571712477271831e+02 6.370302335570253263e+02 5.953463567747727438e+02 5.549006149714609819e+02 5.159019833665141732e+02 4.807314907085619211e+02 4.562064432776940066e+02 5.095445029242940791e+02 5.519201567805987452e+02
4.839808775595229235e+02 5.450576335749760801e+02 6.012356890533916385e+02 6.463107197988989583e+02 6.711403162382268874e+02 6.646048503238738476e+02 6.351294091691896710e+02 6.046238512638799421e+02 5.871553390905100969e+02 5.634039522235061668e+02 5.290629900331420004e+02 4.869472236584122129e+02 4.392608540287642995e+02 4.027374385285701806e+02 3.666492820772660366e+02 3.266110595969244059e+02 2.826580112035485968e+02 2.332986081066249824e+02 2.786643106301184503e+02 3.247911959338127303e+02 3.725388441042373984e+02 4.222218867407745506e+02 4.736686847304630419e+02 5.261800398131229031e+02 5.785776448451754277e+02 6.293136099197566864e+02 6.765809566858582684e+02 7.183897840242626671e+02 7.524349779740712165e+02 7.790242010404783741e+02 7.973980108579504531e+02 8.103822778147090276e+02 8.207219737103799844e+02 8.312416279397804146e+02 8.376224872280042746e+02 8.351079666973822668e+02 8.149535396667539544e+02 7.741049454889771368e+02 7.145309259015183443e+02 6.356734943904315287e+02 5.936088321451458114e+02 5.586354302670511061e+02 5.452700393669518917e+02 5.244458611249548312e+02 5.387315532150474837e+02 5.523599213583606797e+02 5.634148112195308613e+02 5.675826854106707060e+02 6.221190682198142667e+02 6.787875663090138687e+02 7.395699697885006572e+02 7.980921135880919337e+02 8.464345805574482711e+02 8.751250156145798655e+02 8.710020649946586673e+02 8.367075273273686662e+02 7.848478473216395059e+02 7.236722205892777993e+02 6.584964017665868141e+02 5.951445501237599274e+02 5.365540781347468737e+02 4.817090058902776946e+02 4.299143677880397831e+02 4.483063888204798673e+02 4.507916064694612714e+02 4.516300583691389647e+02 4.719541405771325913e+02 4.813190863204487755e+02 4.688042507474045806e+02 4.237353244414661049e+02 3.515979216130974692e+02 3.545424222373400198e+02 3.989580389556369937e+02 4.294621658639902648e+02 4.523914082297525852e+02 4.722432041801981200e+02 4.864252670947490742e+02 4.909677776633116082e+02 5.345005867659763226e+02 5.796872236678337913e+02 6.267575429675471241e+02 6.760017107628854092e+02 7.277952292056628494e+02 7.826391597341862507e+02 8.296352152459346598e+02 8.722144499699585367e+02 9.176135008197003344e+02 9.635865951149571629e+02 1.005188097945542040e+03 1.034384851611046315e+03 1.038795968287847700e+03 1.013718736555862506e+03 9.695975900527150770e+02 9.142419026676557223e+02 8.532409613180785755e+02 7.906012485339297200e+02 7.320097087044670161e+02 6.771641518058509064e+02 6.253694050703796847e+02 5.761244149702463346e+02 6.347152868219532138e+02 6.974170417145969623e+02 7.585691876770769113e+02 8.140397751352800242e+02 8.577368354233848322e+02 8.809947066553452260e+02 8.720905226075437895e+02 8.381797989640967899e+02 7.916674805632598009e+02 7.408214274511763051e+02 6.912732924148288021e+02 6.446928957702751859e+02 5.981811673817280735e+02 5.500141370088780377e+02 4.989338902137694731e+02 4.496888139022399855e+02 4.529470784628300066e+02 5.181469406425362649e+02 5.705200870781292224e+02
4.764071221833958134e+02 5.374802955642331881e+02 5.954408380558085128e+02 6.454764222865394458e+02 6.806219030837477248e+02 6.916025417763640917e+02 6.781858602451986826e+02 6.578694216213565369e+02 6.357576121776564833e+02 6.043894796147850457e+02 5.622812638144383754e+02 5.149510502836891419e+02 4.661217305047960053e+02 4.199972855830969252e+02 3.744377931614735076e+02 3.278287700856350853e+02 2.798594744720394942e+02 2.305893058301548706e+02 2.741229095938174964e+02 3.193108174475527221e+02 3.663825832915713931e+02 4.150772876445986981e+02 4.655529264082019836e+02 5.175637096264327965e+02 5.704629087989592335e+02 6.233614608955080030e+02 6.751387294415202405e+02 7.244444073630995717e+02 7.696174904132458323e+02 8.088006838184049911e+02 8.378704691758321133e+02 8.564809707467012458e+02 8.680612471634698295e+02 8.753223835063798788e+02 8.731112984345719497e+02 8.550190051455174398e+02 8.190709850327822323e+02 7.694047186835501861e+02 7.100371513218591417e+02 6.460625155864138378e+02 5.874011556785785615e+02 5.288103982857684287e+02 5.016249389883181493e+02 4.773750173145133431e+02 4.935446981673468940e+02 5.104545936378527244e+02 5.282312447182173401e+02 5.471386579279239868e+02 6.057293681197588739e+02 6.690818600971243768e+02 7.387923477918587878e+02 8.006380808557448745e+02 8.474255389396004148e+02 8.727447942287661817e+02 8.647283599159258074e+02 8.286035173519534283e+02 7.760888076291286097e+02 7.142930324767512502e+02 6.461485183923940667e+02 5.827965955745770543e+02 5.242060639467545116e+02 4.693609666364403097e+02 4.175663299346712733e+02 4.056155784216315965e+02 3.937269831359059253e+02 3.819196026434528335e+02 4.260157717919242373e+02 4.455768307654542468e+02 4.413082073969317776e+02 4.047207213192949098e+02 3.486545888349756410e+02 3.853382631586076172e+02 4.259507148183683398e+02 4.621508677615516376e+02 4.902961762887192094e+02 5.115871623337317828e+02 5.233827892261989518e+02 5.222218200244145692e+02 5.640943104063165947e+02 6.069876390168855096e+02 6.519506716406691567e+02 6.987121831190818284e+02 7.464398711511694273e+02 7.939542801435964066e+02 8.388858708836294227e+02 8.831949928155229372e+02 9.284531867710062443e+02 9.729852102873945796e+02 1.012043011327732643e+03 1.037275867457247841e+03 1.035619279323239653e+03 1.005951190218689476e+03 9.587647819450927500e+02 9.016887556592744204e+02 8.400439309868701230e+02 7.773931028925721876e+02 7.188016232753664099e+02 6.639561285789734484e+02 6.121614168092045247e+02 5.629164239248771082e+02 6.215072917612765195e+02 6.842280359792235913e+02 7.455222227165945696e+02 8.012192892882089836e+02 8.452435104429209787e+02 8.690198415179655740e+02 8.611176316405189937e+02 8.284026555491185491e+02 7.836461499491672384e+02 7.352344576728385164e+02 6.883343493612610473e+02 6.448234214163444449e+02 5.983250977757344344e+02 5.474757885500065413e+02 4.956811019859225098e+02 4.464360291504480642e+02 4.840793469079659417e+02 5.332453043102441370e+02 5.826417301924388994e+02
4.675112077493616880e+02 5.286078865283681125e+02 5.878975471057103732e+02 6.417576058247989295e+02 6.848195682131887452e+02 7.101791892560127053e+02 7.107881678863711841e+02 6.965207216847015843e+02 6.693575814569196609e+02 6.294807925232064463e+02 5.816943179161856960e+02 5.301476327923644476e+02 4.777539626820869216e+02 4.263278611950909749e+02 3.757722010199767624e+02 3.258442156057415104e+02 2.765632444765409446e+02 2.278831152677456373e+02 2.699486346548883944e+02 3.134824824753854955e+02 3.586702783720069760e+02 4.057417741330064587e+02 4.549872298216935746e+02 5.062131769203000999e+02 5.588713716476647733e+02 6.125711808677550607e+02 6.667356689647690473e+02 7.205775114968363368e+02 7.727654092292789301e+02 8.209055309951876325e+02 8.615100886301369201e+02 8.900012508391379242e+02 9.046411635142179648e+02 9.083311180125940609e+02 8.952030040778220155e+02 8.637084620473142422e+02 8.189289148142050863e+02 7.653833251696112256e+02 7.072160837951408894e+02 6.485674239971503994e+02 5.935245348251817177e+02 5.435472104077693984e+02 5.028391636047380757e+02 4.637035452758742622e+02 5.034320773789753503e+02 5.380512890043767129e+02 5.685083759536341859e+02 5.976729312169867399e+02 6.460560469501150465e+02 7.007020890551519869e+02 7.579053023101583904e+02 8.103762303054726317e+02 8.506055711523337095e+02 8.701167621733181932e+02 8.574793947126386229e+02 8.201946947288714682e+02 7.687632725302873951e+02 7.103892491654535206e+02 6.503188817530178767e+02 5.937950644933671356e+02 5.426996075646878808e+02 4.974962157293995801e+02 4.583893886400197175e+02 4.361972522996533144e+02 4.076390439276221969e+02 3.703264092378879582e+02 3.955044152049553645e+02 4.142498468051657596e+02 4.173495577989730805e+02 3.901227517773331783e+02 3.457124223186279437e+02 3.919260015111694884e+02 4.351798543907437988e+02 4.739313240924699357e+02 5.067256458431478450e+02 5.326235114634710044e+02 5.495023685390766559e+02 5.589803701989151250e+02 5.912900553336619396e+02 6.304262474144983344e+02 6.737656905959644291e+02 7.186762217846190879e+02 7.625144381203514286e+02 8.030720106057877956e+02 8.402790754132118991e+02 8.821541122013831000e+02 9.269686881652190777e+02 9.713704816541286391e+02 1.009794387736987687e+03 1.033392044633895239e+03 1.028708469701521153e+03 9.966045312145258777e+02 9.476932427520558804e+02 8.895772890628059031e+02 8.274415637836789301e+02 7.646260394099301720e+02 7.060346193535615384e+02 6.511891789214756727e+02 5.993944916092166295e+02 5.501494899674827366e+02 6.087403615855989756e+02 6.720931653525698266e+02 7.337628603295871699e+02 7.892671339387152329e+02 8.324371564631310321e+02 8.544310246221712077e+02 8.444705646161313553e+02 8.104436561709022726e+02 7.648081995722466218e+02 7.160169209499377985e+02 6.705048777543596543e+02 6.403529195566729868e+02 6.001056086675339429e+02 5.517613256678315565e+02 4.987466283804462250e+02 4.431876064102665396e+02 4.907487496929922486e+02 5.399520795505616206e+02 5.883887706021665736e+02
4.604120076265501211e+02 5.202397501596864231e+02 5.803933820592667416e+02 6.370896281875438945e+02 6.856690498446786250e+02 7.199837325868435300e+02 7.320819915260450443e+02 7.200164867436710665e+02 6.881489387777522779e+02 6.436449089998553745e+02 5.919871951135939980e+02 5.371247489153992092e+02 4.816218095595293107e+02 4.268791535745338024e+02 3.732936387782870611e+02 3.214980441721124294e+02 2.722519462203690637e+02 2.251803191617668176e+02 2.659307804685423093e+02 3.079965532965016450e+02 3.515303341702353919e+02 3.967178809910072914e+02 4.437891672262265388e+02 4.930345555993187077e+02 5.448296739906670609e+02 5.983515676451416994e+02 6.534555066604718832e+02 7.100876754862345024e+02 7.674050967545746289e+02 8.218728018424257016e+02 8.699928563591000739e+02 9.073193154107829059e+02 9.279626183043322953e+02 9.278187902825642368e+02 9.047681713889612638e+02 8.654670731084880799e+02 8.156768496927185197e+02 7.600244916293132746e+02 7.022385209168314759e+02 6.453195377656880964e+02 5.914227419055148403e+02 5.413942181956366539e+02 4.952429115200799288e+02 4.504070262873626689e+02 4.963366333003505702e+02 5.405162075862248230e+02 5.831377640244930944e+02 6.259809022956974331e+02 6.739267745058596120e+02 7.248225809420627002e+02 7.752570137509250117e+02 8.199182392906376435e+02 8.521096975473873272e+02 8.633901817856392427e+02 8.462615728861928801e+02 8.087847332854285014e+02 7.589096235398574208e+02 7.032510462279252579e+02 6.471180307215201992e+02 5.948049036878429661e+02 5.489769333825624926e+02 5.107118822302433045e+02 4.759888439353033505e+02 4.424138606426866431e+02 4.023038514700131714e+02 3.587707296134614126e+02 3.474497285355495251e+02 3.816090131044322220e+02 3.910893911598031423e+02 3.724309186855451230e+02 3.427718109754820262e+02 3.915651239095149663e+02 4.346395640376678671e+02 4.719896413405433577e+02 5.039719186840874272e+02 5.293100772233974567e+02 5.499390056534141422e+02 5.681061175575438256e+02 6.023541243806035936e+02 6.447965768937830262e+02 6.911108276655094187e+02 7.364906014396199225e+02 7.762547699771050702e+02 8.059108231135444385e+02 8.235367337745042278e+02 8.655897765706351947e+02 9.125916105168072363e+02 9.591772688221235512e+02 9.991356748104765302e+02 1.023401840587757192e+03 1.018487508039192903e+03 9.857536859408382952e+02 9.362048154981830521e+02 8.776136627590238959e+02 8.151983232542228279e+02 7.522544983684164208e+02 6.936631356919372138e+02 6.388177414445108298e+02 5.870230697902326256e+02 5.377780560501272475e+02 5.997074077667991787e+02 6.627924605199406187e+02 7.240231012576148260e+02 7.787171947534139917e+02 8.198067606840439794e+02 8.367064394999673596e+02 8.219327448172687127e+02 7.842775681748832994e+02 7.348483049202501434e+02 6.806717950319155079e+02 6.262228406322542469e+02 6.187735252745414982e+02 5.914798885501870700e+02 5.486428924522574562e+02 4.970953078924360966e+02 4.399427136794137141e+02 4.928113849315866446e+02 5.436775837331957746e+02 5.913579052621946630e+02
4.509924722940589845e+02 5.095914241871972763e+02 5.714594665964052638e+02 6.302481274231042789e+02 6.823488730110271945e+02 7.221919673923415530e+02 7.420951331868458283e+02 7.324858347979043174e+02 6.991979033761894016e+02 6.521135185850955622e+02 5.977375593086120489e+02 5.402955541014313212e+02 4.823858505656382931e+02 4.254403579143220213e+02 3.705944929530137415e+02 3.187988891403139178e+02 2.695528052684857698e+02 2.224811967140197737e+02 2.620443491158450797e+02 3.027950661783568194e+02 3.448608128240115320e+02 3.883943692909516585e+02 4.335816981887079464e+02 4.806528875173495408e+02 5.298983114485970418e+02 5.816935586021425024e+02 6.365396457532967815e+02 6.951317419545172243e+02 7.584858958723741580e+02 8.177698057101587210e+02 8.705876443940134095e+02 9.127260294499624251e+02 9.375607991874514937e+02 9.355945046078591076e+02 9.077417216570538585e+02 8.639231822693786853e+02 8.109660380731696705e+02 7.536562723517006361e+02 6.953679025826385214e+02 6.384224624824245211e+02 5.842356363492893934e+02 5.331302898988934658e+02 4.846449368235416841e+02 4.376660514187036028e+02 4.884844567935459168e+02 5.391262752528122064e+02 5.893579753680236308e+02 6.394430493727767271e+02 6.899793103188702617e+02 7.395148812374162617e+02 7.849415404773437785e+02 8.216582533167762676e+02 8.438291551705359552e+02 8.476751927790559193e+02 8.316235933206047548e+02 7.959928193906417846e+02 7.474944801859468271e+02 6.924779193023724702e+02 6.362411542393995205e+02 5.833854062266121900e+02 5.381648665752311445e+02 5.094217897004624547e+02 4.818714526493480435e+02 4.508204938258480752e+02 4.143625496253864640e+02 3.744899384384366385e+02 3.362821703699178215e+02 3.594471574217068337e+02 3.613374285768715026e+02 3.368931020718966920e+02 3.398321676499418231e+02 3.859005014672200673e+02 4.225274942795639390e+02 4.516858234909846601e+02 4.771338498984731586e+02 4.991743154967859368e+02 5.209227574500146147e+02 5.415561626448792367e+02 5.896317123745716344e+02 6.431097336970018432e+02 6.969980216589752899e+02 7.439464287716573381e+02 7.775938692463649886e+02 7.893486291620944257e+02 7.756080676131415430e+02 8.317412525433624069e+02 8.865687560554242737e+02 9.381976462781329928e+02 9.816765036625332641e+02 1.008512205030623704e+03 1.005619582050582039e+03 9.736948110327704171e+02 9.243678285877473400e+02 8.657474121513943146e+02 8.032336028979299272e+02 7.402190424971046241e+02 6.816277339900573224e+02 6.267823781762170938e+02 5.749877151593514100e+02 5.257426881063805695e+02 5.887298082720302546e+02 6.519897143537742750e+02 7.127280500017874374e+02 7.660689478726966399e+02 8.042458664524576761e+02 8.152619389858987233e+02 7.938365381858457113e+02 7.518629789715299694e+02 6.981262036102286856e+02 6.377429185750175975e+02 5.791519644975060146e+02 5.865884352727465512e+02 5.719591171742226834e+02 5.371375250039712910e+02 4.910299829941548069e+02 4.367002576120368644e+02 4.909762526898650776e+02 5.407165582383020137e+02 5.846097180669420368e+02
4.446869887744417724e+02 5.032872380158521537e+02 5.647208282557782013e+02 6.244411431786427329e+02 6.786604205955923135e+02 7.217565796768794826e+02 7.455492622025661831e+02 7.383647101635262970e+02 7.048955246812945461e+02 6.564133363513622044e+02 6.002133584916838345e+02 5.408827959977600131e+02 4.811912166966369568e+02 4.227450319697944678e+02 3.678991510825576370e+02 3.161035393254191490e+02 2.668574698025073531e+02 2.197858773477506986e+02 2.593490165561984213e+02 3.000997150915692373e+02 3.421654622623567548e+02 3.856990340962825599e+02 4.308863784309194216e+02 4.779575737092881695e+02 5.272029915289306246e+02 5.789982214868889514e+02 6.338442828900426775e+02 6.924363485076489724e+02 7.544990771764892088e+02 8.147399464697424492e+02 8.695971104272495040e+02 9.139497888001767478e+02 9.401211261491678215e+02 9.367240294354551224e+02 9.060220705226817017e+02 8.593527754853220131e+02 8.041981987588733318e+02 7.454308186618145555e+02 6.861639498997781175e+02 6.283428135709406206e+02 5.734977316762839337e+02 5.217031635746204756e+02 4.724581548350004141e+02 4.253872834525926692e+02 4.801315854901002922e+02 5.354254062024017458e+02 5.906090325738878164e+02 6.448610070016733289e+02 6.969427620188339461e+02 7.444157750019744526e+02 7.834162121577395510e+02 8.091000760244261301e+02 8.197430991637328361e+02 8.194510514912831241e+02 8.073194010769859688e+02 7.775568647008989274e+02 7.314484747091883037e+02 6.759351105498718653e+02 6.160168375312798617e+02 5.560726289288764974e+02 4.998219873804071085e+02 4.767763916255494792e+02 4.602562715997678424e+02 4.405370737273407826e+02 4.109151570883730074e+02 3.716645901828921978e+02 3.251968799999581279e+02 3.281155566250819788e+02 3.310346096698722249e+02 3.339544196059931096e+02 3.519725061798649222e+02 3.704174371521474427e+02 3.893249904392644112e+02 4.088426095740153414e+02 4.292866813733908771e+02 4.508222156136301351e+02 4.740438920692064926e+02 4.994914019409440584e+02 5.628438214700202025e+02 6.325534920441325539e+02 6.981441228621517894e+02 7.455241930429515378e+02 7.707548791364145018e+02 7.646294284775871120e+02 7.320747054983736462e+02 7.951246547170367194e+02 8.560032144494330169e+02 9.125353891959777002e+02 9.600424438273289525e+02 9.904112727417480073e+02 9.909947567019188455e+02 9.609150223726824152e+02 9.124476970199665402e+02 8.540988473878236391e+02 7.915586386509347676e+02 7.284910481524868828e+02 6.698997898067326560e+02 6.150544651819410547e+02 5.632598054555484168e+02 5.140147655513537757e+02 5.772534933424941528e+02 6.404189209944106551e+02 7.004750699850708315e+02 7.522542441555624464e+02 7.875846346016434154e+02 7.942037403614147024e+02 7.683530162171957727e+02 7.228020226716461138e+02 6.662774074765827663e+02 6.045100977561996842e+02 5.416556811826308149e+02 5.516614942329352971e+02 5.431009716911786427e+02 5.172944435581448488e+02 4.816904751594938148e+02 4.334599624496763681e+02 4.856413363177342148e+02 5.297692662887914139e+02 5.646057933971346756e+02
4.384374590636062976e+02 4.970390789965983345e+02 5.586112338219472804e+02 6.189987189105393099e+02 6.745570807418372397e+02 7.196251202567051450e+02 7.456925509668189989e+02 7.403549315703279490e+02 7.070971835850104981e+02 6.578712195845856741e+02 6.004791373110168706e+02 5.397863882310433610e+02 4.786449084358691834e+02 4.200534918428129458e+02 3.652075954179902055e+02 3.134119769240526807e+02 2.641659218661486648e+02 2.170943433318111317e+02 2.566574714990708230e+02 2.974081518594822455e+02 3.394738982974411101e+02 3.830074845607408633e+02 4.281948443429766940e+02 4.752660461473132614e+02 5.245114585509501239e+02 5.763066719224262897e+02 6.311527080264048664e+02 6.897447433060882531e+02 7.516005802873604580e+02 8.122327448559304912e+02 8.678911538331115025e+02 9.129465910012268068e+02 9.390144401585361038e+02 9.338500537802513009e+02 9.009341366334004988e+02 8.521945170758637005e+02 7.954064488876591668e+02 7.354217603651619584e+02 6.750450852406175954e+02 6.164542609030539779e+02 5.616091730344941197e+02 5.098145909033823386e+02 4.605695719712344385e+02 4.134986853185446876e+02 4.711432736465470157e+02 5.298415952821510473e+02 5.881781939665722803e+02 6.443917379077943224e+02 6.959026442295884181e+02 7.388091931943260988e+02 7.672773658019954155e+02 7.797899953698864692e+02 7.826655887033568888e+02 7.801975532154746134e+02 7.715083233237056675e+02 7.502743630472498353e+02 7.094608994660022745e+02 6.550720987434209519e+02 5.908196817892526269e+02 5.211097192035186936e+02 4.577571851643928085e+02 4.220063022679802316e+02 4.159713425612129640e+02 4.092085789905812589e+02 3.892891546210808542e+02 3.567356503502047076e+02 3.223326106447580059e+02 3.628039816214551934e+02 3.870183183514067196e+02 4.005628009887162762e+02 4.172288758516147595e+02 4.350824940493534996e+02 4.517994698033370469e+02 4.674334850501768415e+02 4.874236617811957331e+02 5.055417200226568184e+02 5.221355551786466549e+02 5.324315399051647546e+02 5.916557891480169928e+02 6.549982984857773545e+02 7.113144235260461983e+02 7.502073112194302666e+02 7.616973418424299780e+02 7.403899791677127951e+02 6.971009407421273636e+02 7.604542146229173341e+02 8.252566127371511584e+02 8.855030083535657468e+02 9.365954747849020805e+02 9.706676855070004422e+02 9.754872634595210457e+02 9.480103079490696700e+02 9.009009004977299355e+02 8.429797118131239131e+02 7.802292953764352887e+02 7.170458031538870500e+02 6.584545904701793688e+02 6.036092905010514187e+02 5.518146302719073901e+02 5.025695792422081922e+02 5.657627386256739328e+02 6.286191137788348442e+02 6.878160760779422844e+02 7.378655361316766630e+02 7.702347341423994749e+02 7.722867166935067189e+02 7.427466007382823818e+02 6.943421125250146133e+02 6.356311201604308962e+02 5.720681956173000344e+02 5.087154966426857072e+02 5.147770577131306027e+02 5.037258022717117569e+02 4.791305918532836472e+02 4.607532907401539433e+02 4.302207463535270335e+02 4.716226829973666668e+02 5.022413920515622294e+02 5.253234760255699030e+02
4.322422694421186407e+02 4.908453077557988991e+02 5.526782846592375336e+02 6.135987833994795437e+02 6.700682642158802764e+02 7.164171317127269276e+02 7.439711781303566340e+02 7.400181184513468224e+02 7.070958196561253999e+02 6.575193876823977917e+02 5.994203294975442304e+02 5.378963504097988562e+02 4.759571437626606212e+02 4.173657198801794266e+02 3.625198083486490077e+02 3.107241842658175983e+02 2.614781436579523302e+02 2.144065771177567115e+02 2.539696961212969200e+02 2.947203587808742213e+02 3.367861033351800870e+02 3.803197030704092754e+02 4.255070782524367132e+02 4.725782871250872290e+02 5.218236948012072389e+02 5.736188921997354555e+02 6.284649034613781851e+02 6.870569086583922171e+02 7.490778925076359656e+02 8.100431863689009333e+02 8.659639487223122387e+02 9.108504423939456274e+02 9.358714223664260317e+02 9.283414239388886244e+02 8.932799049402921128e+02 8.428147922144125914e+02 7.848157359265422883e+02 7.241396379680710425e+02 6.634895768999281245e+02 6.048987629509060753e+02 5.500536674044552683e+02 4.982590723752167605e+02 4.490140421790608798e+02 4.019431274216449310e+02 4.605340778669381621e+02 5.220342610268991166e+02 5.820271548774285293e+02 6.380980026891265879e+02 6.863521167163635255e+02 7.212218672668273030e+02 7.360995164771917416e+02 7.383367580508089532e+02 7.356939005090340515e+02 7.323691148706819831e+02 7.276236362482475215e+02 7.154382893159789774e+02 6.851373192297041896e+02 6.373300003476804250e+02 5.785400898242834273e+02 5.147209968215099707e+02 4.511585173407867160e+02 3.884324215580878672e+02 3.581550431845001299e+02 3.687419748537133728e+02 3.517982335992028311e+02 3.166053163110477158e+02 3.194686962896185491e+02 3.869450356595360176e+02 4.322315138935887262e+02 4.583779820178869500e+02 4.789958495335439466e+02 4.983344915152604244e+02 5.148431468837320608e+02 5.303124409921360893e+02 5.471549897919061323e+02 5.616630969056350295e+02 5.722430571941554263e+02 5.690203126052103926e+02 6.110847672446976730e+02 6.773846283661179086e+02 7.269178178051409986e+02 7.543312166330783839e+02 7.500937033100111648e+02 7.173324834485587189e+02 6.668238236809319233e+02 7.301769210992162016e+02 7.965482929471312445e+02 8.590332747996272929e+02 9.128394371547752826e+02 9.502735662901287697e+02 9.596317118183272896e+02 9.356058617254435603e+02 8.904499759085751975e+02 8.331367554778844351e+02 7.692150216989352884e+02 7.058617922976071668e+02 6.472706205454416022e+02 5.924253395329336627e+02 5.406306763943792930e+02 4.913856168889974469e+02 5.544961887708951735e+02 6.169807169631760644e+02 6.752073530641608841e+02 7.233601318289186111e+02 7.526099063213670206e+02 7.501963422257538241e+02 7.174638403504552571e+02 6.668567176281335378e+02 6.066934573048830543e+02 5.422431102213537315e+02 4.788904036895344802e+02 4.774220583859956832e+02 4.581094041140628406e+02 4.205848877211234367e+02 4.237832201255868085e+02 4.269820697098020332e+02 4.418576127488327074e+02 4.569554329227530047e+02 4.723839311821681122e+02
4.260998906244830664e+02 4.847043669095698988e+02 5.467933080742968741e+02 6.081417885268327836e+02 6.652719776281199984e+02 7.125193303186816820e+02 7.411371505315138393e+02 7.382737284906510240e+02 7.057360591127874159e+02 6.560589325766912907e+02 5.975953281440015417e+02 5.356196431605430917e+02 4.732731301465695992e+02 4.146816985705340812e+02 3.598357724003391240e+02 3.080401438130014071e+02 2.587941175312674318e+02 2.117225613292540629e+02 2.512856727588692820e+02 2.920363182865124259e+02 3.341020599142037213e+02 3.776356721522312228e+02 4.228230626302106430e+02 4.698942790782199381e+02 5.191396827066979540e+02 5.709348647496324247e+02 6.257808516336004914e+02 6.843728270126624693e+02 7.468541374338072956e+02 8.084162742905392633e+02 8.643760719422724605e+02 9.084609728478637862e+02 9.315569829825017223e+02 9.208489931024629414e+02 8.834179882169709117e+02 8.312899580885592741e+02 7.722687317556644757e+02 7.113189654248736815e+02 6.513253708639477964e+02 5.936471208088524918e+02 5.388020165596077504e+02 4.870074091997043411e+02 4.377623638913042896e+02 3.906914031140893258e+02 4.524089039789940898e+02 5.146568637847119589e+02 5.747798517437380497e+02 6.289669891287562677e+02 6.715352511674468587e+02 6.941345563470246134e+02 6.954316941999676374e+02 6.881837149030069440e+02 6.813695468471241838e+02 6.779679731398682634e+02 6.775281457151979794e+02 6.724269522461694351e+02 6.537929373652301592e+02 6.165999507355948026e+02 5.643958754296533016e+02 5.049372324939295140e+02 4.433299436136366580e+02 3.829625417888348125e+02 3.291696573768912799e+02 3.340794318244722376e+02 3.108799835438368291e+02 3.137422928591349773e+02 3.671699937901947806e+02 4.228064673827858542e+02 4.712509105600432804e+02 5.073348679957617833e+02 5.341446509799634441e+02 5.572873071165788588e+02 5.755197968534257598e+02 5.914929831273362879e+02 6.072176730919827605e+02 6.202046139312725472e+02 6.310631153491493706e+02 6.387299075891410212e+02 6.603290468832710758e+02 7.107693818486867485e+02 7.466117349344922332e+02 7.574588957371707920e+02 7.366085423271116497e+02 6.945500888488242026e+02 6.396383300628306188e+02 7.029912761708355902e+02 7.700094761843043898e+02 8.337219242800850907e+02 8.893306264018671072e+02 9.293879298434991370e+02 9.430048509643625039e+02 9.242589179325292434e+02 8.821115796991698517e+02 8.268968285941602971e+02 7.655000881833141193e+02 7.031938264238135616e+02 6.431331659965151175e+02 5.861639236813114167e+02 5.321948754838469995e+02 4.804440085838205050e+02 5.436978592340529985e+02 6.059096076577340000e+02 6.631050863960351762e+02 7.091022527313540422e+02 7.347606771744083289e+02 7.279820004833242137e+02 6.925095649307143049e+02 6.402966248014482744e+02 5.793540396137692596e+02 5.147274271120490994e+02 4.513747251568900083e+02 4.415859705250748561e+02 4.141902886906784147e+02 4.173873301300760659e+02 4.630552293351896083e+02 4.805372030401838401e+02 4.923393991068668356e+02 4.988189643795901702e+02 4.964160497849970852e+02
4.200088712591297622e+02 4.786147759088031535e+02 5.409249283672207866e+02 6.026180848331339348e+02 6.602537177381854008e+02 7.081790971678411779e+02 7.376224772070083873e+02 7.356738729304253184e+02 7.035488955953752566e+02 6.539309254169736505e+02 5.953264720176388209e+02 5.331363970806727366e+02 4.705928501735279497e+02 4.120014105423338151e+02 3.571554702334329363e+02 3.053598381600916127e+02 2.561138259934152757e+02 2.090422787516127130e+02 2.486053839058907329e+02 2.893560129391559599e+02 3.314217507040419832e+02 3.749553744716749861e+02 4.201427800885753641e+02 4.672140045825385073e+02 5.164594048331289287e+02 5.682545721409537691e+02 6.231005351195191224e+02 6.816924809547489303e+02 7.450464792537420635e+02 8.082211442544738702e+02 8.639875274991138667e+02 9.065277407685449589e+02 9.264653469113694655e+02 9.115033076442222182e+02 8.713846724837073907e+02 8.174750456871634015e+02 7.571597058924868406e+02 6.956673245069785025e+02 6.362947645192664368e+02 5.798251403876749919e+02 5.262815844990193455e+02 4.754182126132145640e+02 4.267601374492261357e+02 3.797026404858436877e+02 4.428476715159103492e+02 5.056136537758334271e+02 5.648442746906575849e+02 6.155288681622786271e+02 6.501685906695958010e+02 6.589753794443513470e+02 6.481980900207964851e+02 6.310747944165744912e+02 6.215872404276771022e+02 6.184201922770866986e+02 6.237530449258496219e+02 6.242954845016962508e+02 6.136306511260587513e+02 5.879307375214173135e+02 5.438649132151833783e+02 4.893885689599232478e+02 4.294866091335029523e+02 3.656547708104916978e+02 3.023005441388225449e+02 3.051589316187541385e+02 3.080182105264201482e+02 3.515523268213908636e+02 4.009377288431697934e+02 4.505591442119310273e+02 4.983271571526339585e+02 5.414710321280934977e+02 5.773797816144044646e+02 6.072930094487072665e+02 6.300638435813888236e+02 6.485254605732160371e+02 6.650858757319964525e+02 6.781587523328495308e+02 6.905106172650156395e+02 7.039536691498324217e+02 7.233127790442872538e+02 7.512422610995413379e+02 7.668635450378643554e+02 7.567608966632973306e+02 7.228111123800401856e+02 6.734446748537551457e+02 6.149322557824569913e+02 6.782850882573509352e+02 7.453882503130104169e+02 8.095760142831001076e+02 8.660381696782752670e+02 9.073858719285400412e+02 9.228014593439005466e+02 9.095936034098393748e+02 8.713658951890827211e+02 8.188265422198907117e+02 7.589338771770018184e+02 6.964620582143571710e+02 6.349444120094365189e+02 5.763534358339055643e+02 5.215082129849300827e+02 4.697135242781348552e+02 5.338386578691150817e+02 5.959946681550050016e+02 6.520983066332023554e+02 6.954993828962066118e+02 7.159173610358774340e+02 7.051180892814121535e+02 6.674663565149742226e+02 6.142093656251378206e+02 5.531014456355236462e+02 4.890157364817396228e+02 4.256630607964665387e+02 4.077990401377173839e+02 4.109942782692006631e+02 4.628747901023454574e+02 5.055849831156268124e+02 5.279013185802933776e+02 5.380757553502721748e+02 5.372062393524844310e+02 5.206659852707190339e+02
4.139678316778504268e+02 4.725751261933151000e+02 5.350709908273410065e+02 5.970461433186754903e+02 6.550874082808564935e+02 7.035587317064939725e+02 7.336891608745437452e+02 7.325541548120070274e+02 7.008613361552237393e+02 6.514037978194610332e+02 5.927987559253422205e+02 5.305377151598916043e+02 4.679162865682897632e+02 4.093248385622863452e+02 3.544788846414683690e+02 3.026832500336938097e+02 2.534372517047409872e+02 2.063657123225131045e+02 2.470513429867440891e+02 2.887352216010834240e+02 3.317140492695377816e+02 3.762175089441773252e+02 4.224476077260329134e+02 4.706781640209846955e+02 5.212391734570248900e+02 5.744923298499758175e+02 6.307427176022283675e+02 6.900015107557978808e+02 7.515137903700494917e+02 8.120424504442752323e+02 8.660223997083684253e+02 9.059004642606054176e+02 9.202494027207048930e+02 8.998158378325407512e+02 8.570948825178311381e+02 8.015347525474962822e+02 7.390437892459867726e+02 6.756910274704420090e+02 6.171001805509730502e+02 5.622550754223860849e+02 5.104604902284438595e+02 4.612154692387289288e+02 4.141445443627955001e+02 3.689573988819354895e+02 4.335023378453622627e+02 4.965325215020696987e+02 5.543396477965122813e+02 6.005817522181750974e+02 6.250339372279602230e+02 6.203227771131071222e+02 5.973653111102390767e+02 5.677225533025825825e+02 5.629967019314237859e+02 5.598296513826861656e+02 5.695613901701246959e+02 5.739205509740344269e+02 5.684787400257969239e+02 5.517294910384882769e+02 5.178688053767731390e+02 4.704744646800329519e+02 4.165085539935420229e+02 3.590545892351184420e+02 2.994497611578858027e+02 3.303529720360335773e+02 3.533393575420701609e+02 3.849682381545317185e+02 4.238276123489716838e+02 4.663181671419064287e+02 5.111964496538602702e+02 5.565905622117874145e+02 6.003942678814096325e+02 6.406998075784096045e+02 6.731042588571363012e+02 6.972766168341505590e+02 7.167255689919624047e+02 7.307404023470874108e+02 7.435599750746772543e+02 7.570313389746335133e+02 7.703366243505322473e+02 7.818828940783475900e+02 7.770235759888092844e+02 7.499539039113210492e+02 7.063565984195466854e+02 6.521187892314214878e+02 5.920831771095762406e+02 6.554359333712807256e+02 7.223393680603610392e+02 7.864418605851711845e+02 8.428964645947341978e+02 8.842911296825512864e+02 8.999153275348837724e+02 8.917059282890074883e+02 8.582458257935470556e+02 8.093472009606239226e+02 7.512486486067716669e+02 6.877512197297398870e+02 6.243982975746318971e+02 5.658073322550889088e+02 5.109621066537826550e+02 4.591674201889133542e+02 5.231251226198567110e+02 5.844824219429136747e+02 6.387071354688952169e+02 6.786448457445532085e+02 6.934164310263121251e+02 6.806165580330343801e+02 6.416611073630365354e+02 5.877950706018001483e+02 5.269556034416182229e+02 4.645037501326202687e+02 4.014131894029739556e+02 4.046056016229513830e+02 4.530380515973928368e+02 5.007797043219686657e+02 5.420811710461368875e+02 5.683764902225080959e+02 5.789912726473120301e+02 5.743587243861562683e+02 5.453720780557282524e+02
4.079754579529985108e+02 4.665840766098131098e+02 5.292368452470509510e+02 5.914486651169361267e+02 6.498300500536637401e+02 6.987656249372092816e+02 7.295002917825546547e+02 7.291198950308229314e+02 6.978727948810519592e+02 6.486389298026150527e+02 5.901194462076271066e+02 5.278733609022542623e+02 4.652432802149689905e+02 4.066518235555630554e+02 3.518058565709807226e+02 3.000102203134767365e+02 2.507642354989944238e+02 2.036927031463648348e+02 2.444430878064846411e+02 2.865087259459842812e+02 3.300425001830141696e+02 3.752301564254486266e+02 4.221336134955476496e+02 4.710978998369276951e+02 5.225003310418221645e+02 5.767235900705624090e+02 6.339823997116071723e+02 6.937874519790549357e+02 7.547904518299523033e+02 8.139834974212009229e+02 8.661424504537069424e+02 9.032130101576483412e+02 9.130230176082196749e+02 8.892045513350850570e+02 8.447402670409129541e+02 7.887891352808545662e+02 7.275000802100441888e+02 6.651723763295610752e+02 6.065815396102989325e+02 5.517364301810152938e+02 4.999418334288030792e+02 4.506967940837527067e+02 4.036258232397676693e+02 3.584385612935807330e+02 4.230619401984495198e+02 4.854402806879136278e+02 5.410511064557438203e+02 5.822752022921267780e+02 5.967946359803206633e+02 5.807565806866313096e+02 5.462308670442101857e+02 5.091318977908669012e+02 5.081516998002263108e+02 5.049846446628199601e+02 5.170355789220835732e+02 5.233151675640033318e+02 5.201010763455176402e+02 5.069921775696865325e+02 4.807384347988962077e+02 4.420700615936416966e+02 3.970270318694554703e+02 3.493905279653872071e+02 2.966000382163854852e+02 3.328991487018383850e+02 3.648129532787264111e+02 3.966232451964429515e+02 4.305719127365518375e+02 4.674577886427073850e+02 5.102453650740407625e+02 5.572193241262232277e+02 6.062501575615780212e+02 6.546604234390390502e+02 6.980767052301130207e+02 7.323266964212152743e+02 7.567442728962566889e+02 7.721339521302659250e+02 7.838081543004296918e+02 7.938617374773925803e+02 7.999138506964582120e+02 7.976300814939157817e+02 7.765957351250877991e+02 7.389086067653314558e+02 6.890125320740562529e+02 6.316261096516433327e+02 5.708386996860215277e+02 6.341914117631876024e+02 7.006486752363782671e+02 7.642014754992408143e+02 8.198478130052910728e+02 8.599921386838183253e+02 8.738789457758761046e+02 8.689606532312744775e+02 8.422065394622130725e+02 7.994052328298181465e+02 7.457421797397335013e+02 6.857025233508322799e+02 6.235878218792279313e+02 5.622316963808706305e+02 5.036407714960870976e+02 4.487955431320232265e+02 5.120794802672220385e+02 5.720439837762488651e+02 6.236616586605458679e+02 6.593929363094364362e+02 6.683716880456321405e+02 6.543271559269829822e+02 6.146674809408368674e+02 5.600469652651173647e+02 4.987136798777901276e+02 4.404014519750093655e+02 3.982342823805327612e+02 4.369377084186052684e+02 4.815596302515986054e+02 5.263043587754051487e+02 5.665737148272843342e+02 5.971786571172027607e+02 6.131042251201454292e+02 6.155576735361452165e+02 6.114457110447245896e+02
4.020304963279556887e+02 4.606403490640366840e+02 5.234284244554048655e+02 5.858447772268519884e+02 6.445225896861338697e+02 6.938704154993936299e+02 7.251582592362827882e+02 7.254969635192384203e+02 6.947043079397014935e+02 6.457329976494204402e+02 5.873514140525994662e+02 5.251717091138779097e+02 4.625738153881696917e+02 4.039823498369035519e+02 3.491363703541586574e+02 2.973407332661653868e+02 2.480947616142439642e+02 2.010232357196367730e+02 2.417736159075559499e+02 2.838392397002984353e+02 3.273730090217445650e+02 3.725606749188454501e+02 4.196320909962070687e+02 4.688775285369043218e+02 5.206725848001245822e+02 5.755183396974483685e+02 6.338732668208181167e+02 6.943940429169767867e+02 7.554136351724176848e+02 8.138579532250352031e+02 8.644959584221328441e+02 8.990706900294873094e+02 9.051711280649823266e+02 8.788838060042908182e+02 8.331929761586623044e+02 7.770690730579545971e+02 7.164071974448942228e+02 6.548650121164939719e+02 5.962741827898618112e+02 5.414290676543731706e+02 4.896344580342861263e+02 4.403893944786185557e+02 3.933183620894211003e+02 3.481309625071063465e+02 4.122731977299085884e+02 4.735437965515950509e+02 5.268149514913804978e+02 5.636192552664386994e+02 5.700175446527736085e+02 5.426263176513326698e+02 4.938493041313801655e+02 4.542867473221944010e+02 4.563488117295807456e+02 4.531900111302779806e+02 4.670895281178250116e+02 4.741072249082622534e+02 4.708084412892742989e+02 4.573998361309502343e+02 4.318686667430285411e+02 3.952060546484158863e+02 3.556574474924158267e+02 3.284316786456352588e+02 2.937526025583513842e+02 3.313100902525663400e+02 3.631271495326623153e+02 3.915891676738166325e+02 4.200312425860519738e+02 4.489279355947786598e+02 4.931026049615437046e+02 5.437285587751993035e+02 5.985900616595107522e+02 6.550895695143427702e+02 7.060487941593753476e+02 7.478099403364874433e+02 7.782681671680500131e+02 7.954018704860724256e+02 8.032901203911173980e+02 8.059043183141802729e+02 8.060270183506571584e+02 7.966013085319441416e+02 7.691951122899891971e+02 7.263355893464074597e+02 6.727653025301489151e+02 6.130674632067217544e+02 5.509902929165608612e+02 6.143429844854028943e+02 6.801953353264843827e+02 7.428536684527987290e+02 7.969828999618941907e+02 8.345278880676916060e+02 8.441152181098659639e+02 8.372474285256861322e+02 8.157942579439692281e+02 7.841263385280071816e+02 7.379152378536546166e+02 6.818413934578792350e+02 6.208909091335245876e+02 5.586421800663325712e+02 4.971671855315550488e+02 4.385762727170966286e+02 5.010759608924169015e+02 5.592252401767256060e+02 6.074076375815520805e+02 6.377049707502095544e+02 6.404865984369218950e+02 6.260149444186048413e+02 5.868672066095424498e+02 5.309384651480354478e+02 4.615916622518420240e+02 3.918812641839478488e+02 3.950568908476529941e+02 4.491418541610178750e+02 4.965384901145182539e+02 5.399196343447364370e+02 5.783718676729170056e+02 6.093691235944133950e+02 6.307835838669727764e+02 6.413790637167710429e+02 6.476191981083904921e+02
