ncols 119
nrows 32
xllcorner 850
yllcorner 4000
cellsize 50.0
6.378348387150160761e+02 6.159092592466329279e+02 5.922044130850441661e+02 5.674568765801307109e+02 5.420374769650156850e+02 5.239369757327197021e+02 5.133353799270176978e+02 5.078646441173615358e+02 5.024077614963575229e+02 4.968805774587969495e+02 4.899154000963284261e+02 4.804685394863375336e+02 4.666585919833373168e+02 4.446306266976049528e+02 4.098593378713861171e+02 4.075929550164793795e+02 4.029668953290803302e+02 3.981464165614101489e+02 3.923824840587677159e+02 3.840546257228096465e+02 3.741898468415975572e+02 3.601416380853232226e+02 3.375376450151833865e+02 3.022696589585767128e+02 3.371141055021769262e+02 3.802713841534080643e+02 4.286460772774740349e+02 4.799737737582199202e+02 5.314696309087599957e+02 5.791994422070667952e+02 6.178808872257681060e+02 6.407898585402462004e+02 6.469188368714011403e+02 6.431503791522184201e+02 6.313394969559640231e+02 6.131905398171124943e+02 5.898622699541186876e+02 5.592456861013074558e+02 5.077214791632300148e+02 5.215941991580757531e+02 5.357512950117412629e+02 5.502928612951303649e+02 5.652560712030817740e+02 5.807836632641450478e+02 5.970110993940068056e+02 6.139881445565495142e+02 6.318442596766140014e+02 6.507521690798035934e+02 6.709515573073871337e+02 7.295453363801889282e+02 7.929015446858213636e+02 8.626156206167744358e+02 9.344798579558769234e+02 9.962243943508701705e+02 1.043222517579738906e+03 1.068410216240207319e+03 1.071740475166317765e+03 1.067444657541903553e+03 1.059446458312471805e+03 1.043706158546213601e+03 1.015013659451701301e+03 9.732580811713637559e+02 9.222610251514784068e+02 8.642242478293735530e+02 7.989883940531981352e+02 7.356374987362926277e+02 6.770481835881159896e+02 6.222040773644476985e+02 6.038477029049424800e+02 5.857474235246197622e+02 6.134055717342630487e+02 6.463761651003488851e+02 6.656632873224781406e+02 6.553786189435444385e+02 6.162668033778592189e+02 5.606537200309085165e+02 4.964126925527099843e+02 4.298641575155380679e+02 4.664045532466241184e+02 4.943222880836569857e+02 5.158055913144926308e+02 5.347883747744716629e+02 5.508388018937851029e+02 5.668768954804302211e+02 5.827558029963739727e+02 5.986362438913957931e+02 6.146428249687655807e+02 6.307087599426955649e+02 6.463821150509626250e+02 6.606013623746812300e+02 6.742978210020505685e+02 6.843980608908889280e+02 6.846535006425035590e+02 7.338969927610239665e+02 7.856898345297888682e+02 8.405331102807178922e+02 8.991220701632734063e+02 9.556770995564063469e+02 1.008956488868424685e+03 1.055256842162960311e+03 1.095109416965339051e+03 1.123652455369453037e+03 1.130652289864161503e+03 1.109219649663379641e+03 1.067606884364953885e+03 1.013356403503821070e+03 9.519684359376940392e+02 8.886149329753629900e+02 8.300230224049951175e+02 7.751768137032133836e+02 8.294691031292884418e+02 8.672156556909873188e+02 8.761269848275343293e+02 8.510825971084253752e+02 8.057910153899731540e+02 7.496156949609774074e+02 6.886536228589045550e+02 6.266860667315486353e+02 5.680952349186658239e+02
6.910270222281877750e+02 6.720246294224547228e+02 6.500163946616991097e+02 6.260836413453666864e+02 6.006292292542727864e+02 5.825285726105676076e+02 5.763882824737179362e+02 5.701787082010017684e+02 5.637290328430950694e+02 5.567551526819954688e+02 5.483812528130159762e+02 5.375256134357517794e+02 5.226244911295443671e+02 5.016154208757493507e+02 4.732122348453042946e+02 4.706569891293626711e+02 4.648894057676809553e+02 4.583789131220759714e+02 4.494092219593157438e+02 4.351682052305734487e+02 4.164350268251643570e+02 3.882583371949926914e+02 3.486869895456186441e+02 2.994705908055713053e+02 3.443770289331466188e+02 3.911836474910169272e+02 4.406399057816171307e+02 4.922161746853646491e+02 5.443903602251824623e+02 5.945625871973220455e+02 6.388870734216402525e+02 6.720202935063051655e+02 6.868734667827274052e+02 6.882698318679593967e+02 6.794215885355386035e+02 6.624782792426158267e+02 6.385273402806651575e+02 6.066919575153507367e+02 5.625670476770384312e+02 5.764174390148693874e+02 5.875464587527349067e+02 6.020881648844095935e+02 6.145018512316119086e+02 6.300296444238754248e+02 6.488070418184593109e+02 6.657843706197375013e+02 6.824391816108612829e+02 6.955038546805618580e+02 6.969378750300454612e+02 7.255323031327661738e+02 7.888886558450028588e+02 8.586028267892108943e+02 9.290392940243945077e+02 9.862187939403295331e+02 1.023618782038464246e+03 1.033618362736304107e+03 1.026094105524860197e+03 1.017152593874887316e+03 1.012115022828822475e+03 1.004445380174676302e+03 9.893925056041416610e+02 9.618299976615098785e+02 9.210419132846042203e+02 8.709388317612392711e+02 8.150509071392228861e+02 7.583171194861395179e+02 7.040428720046414810e+02 6.545078774851393746e+02 6.131972615257802772e+02 5.681256454961684312e+02 5.511488601505067209e+02 6.029431557595775075e+02 6.369187808684372385e+02 6.370343846877117358e+02 6.035728327485999216e+02 5.517650472791783614e+02 4.908670585218113729e+02 4.267882283977198199e+02 4.769577625947574120e+02 5.193328981609329276e+02 5.529760515454680672e+02 5.792833664971215057e+02 5.993395626197600450e+02 6.176506255513236283e+02 6.348518786176343838e+02 6.516950794582162416e+02 6.685481886174824240e+02 6.854022818124492460e+02 7.013445650532013360e+02 7.145541565345936306e+02 7.257998057144575341e+02 7.299243950862662587e+02 7.182262252374656555e+02 7.700024180395815847e+02 8.225095069437230677e+02 8.777209739764182359e+02 9.304486621793458880e+02 9.768607503313151028e+02 1.014739211395671191e+03 1.044383287742431548e+03 1.076530019726955516e+03 1.101949190176320826e+03 1.109951316136727883e+03 1.092664641913575906e+03 1.052385408739599598e+03 9.985667576057113592e+02 9.379494941374829295e+02 8.754877078261331462e+02 8.146656488936383766e+02 7.562691266213989820e+02 8.115596356437009717e+02 8.512235268738543255e+02 8.633634479361247713e+02 8.407437154373532167e+02 7.970156901805122516e+02 7.416864991122547508e+02 6.810411077205063748e+02 6.190560080927417630e+02 5.604651684331543038e+02
7.326212205262096404e+02 7.205687072060450191e+02 7.036062226421512378e+02 6.835848109946376780e+02 6.627942759824738914e+02 6.458826734479861216e+02 6.393225949267340411e+02 6.321396767584218424e+02 6.244331275212551873e+02 6.160886130324537362e+02 6.065933707956834269e+02 5.950922328463699387e+02 5.805376411672417589e+02 5.624144122012172602e+02 5.429232778788443738e+02 5.335632911242925047e+02 5.235471558880627754e+02 5.124667401336955663e+02 4.970172367574040777e+02 4.734168088552049198e+02 4.415089553282404040e+02 4.001361602355672744e+02 3.513934828259363030e+02 2.966733463223865215e+02 3.449937170455414730e+02 3.941795437133801556e+02 4.449008239919602943e+02 4.971345223711570611e+02 5.501076718935911458e+02 6.021762732731663164e+02 6.506269891525585081e+02 6.913178021758261593e+02 7.177893478701613503e+02 7.274523367308891011e+02 7.241457005830121716e+02 7.107108285785355974e+02 6.889661441366436065e+02 6.596696392896965335e+02 6.211590191883839225e+02 6.339439454202996558e+02 6.423929385485730563e+02 6.561349592952510648e+02 6.662980628183771614e+02 6.818260955979516211e+02 7.026590603702941280e+02 7.204065768554545457e+02 7.357966460805022280e+02 7.471548016790150086e+02 7.517860725019901338e+02 7.567881652816213318e+02 7.925411849934030215e+02 8.668779369529632959e+02 9.329759025188047872e+02 9.813024133556089055e+02 1.002906804069306190e+03 9.938385966843264896e+02 9.730920952512034319e+02 9.576492225769690094e+02 9.565448656785059711e+02 9.546493755551450704e+02 9.489695369947269228e+02 9.364493060723169719e+02 9.113585384252252197e+02 8.727245117708743010e+02 8.252406575377177660e+02 7.734013813173272638e+02 7.207480147370979466e+02 6.697390598221221580e+02 6.217179879609541331e+02 5.757057366325799421e+02 5.350361299705621150e+02 5.863173535842138335e+02 6.198553268439935664e+02 6.221864011838722490e+02 5.922165945245898229e+02 5.436888640740726260e+02 4.856330972134394415e+02 4.237138856199707675e+02 4.776666923586132043e+02 5.265165472142333556e+02 5.689156230063679232e+02 6.042290323350977133e+02 6.310515147514651062e+02 6.520627169289033418e+02 6.704253188626610154e+02 6.882904437788848782e+02 7.063726315836455569e+02 7.252735413589948621e+02 7.434518019163990630e+02 7.587742326237704447e+02 7.715276445387657986e+02 7.754559373418790074e+02 7.577874296376290886e+02 8.013187261318280434e+02 8.505620218165840924e+02 9.098868099860466145e+02 9.558472575907537703e+02 9.871644151030050125e+02 1.000495022513633103e+03 1.003841988298833371e+03 1.036990132696153296e+03 1.067752634344222542e+03 1.082015767228615687e+03 1.071674609010468657e+03 1.034612673648697410e+03 9.821872599679970790e+02 9.220933236110699909e+02 8.593274866634636737e+02 7.967603114198707317e+02 7.381685445943359127e+02 7.938719137696353982e+02 8.350500747763776417e+02 8.505490845862123024e+02 8.308135118440184215e+02 7.888558042204291496e+02 7.344252196723688257e+02 6.739939737311580075e+02 6.114769089952781087e+02 5.528860594279623228e+02
7.545407806486612117e+02 7.555694307486803609e+02 7.484006147604833359e+02 7.355441967747475474e+02 7.203575459982688471e+02 7.075074045066584176e+02 6.994431157881855370e+02 6.906613125991840434e+02 6.811567347203383633e+02 6.712347751317921620e+02 6.608807802532423921e+02 6.494387688822798737e+02 6.359293862104630080e+02 6.200107397465959593e+02 6.032675726542330494e+02 5.898317665882406118e+02 5.738809217394618827e+02 5.549130861938510861e+02 5.281328678455433874e+02 4.918255958419680383e+02 4.491008990235779379e+02 4.010082173579411347e+02 3.488543893119074824e+02 2.938780870073986762e+02 3.423861282300541689e+02 3.919797778774519088e+02 4.428588277172507901e+02 4.950080264092387097e+02 5.480017765461844874e+02 6.008178083476464053e+02 6.516291822999974102e+02 6.975517918656677239e+02 7.343668893909514281e+02 7.567308367668877054e+02 7.626090075463945368e+02 7.558845007918497458e+02 7.395605303789785694e+02 7.159896204068148791e+02 6.845137920159672831e+02 6.951795989481657898e+02 7.009860518965901974e+02 7.132590513824022764e+02 7.211456573057057540e+02 7.366738840140028515e+02 7.589692421818083403e+02 7.772292955261232237e+02 7.922283949145040651e+02 8.034701088250902785e+02 8.103803233242451824e+02 8.153825104598910229e+02 8.321060750688205871e+02 8.813536108507792051e+02 9.438397651102076225e+02 9.787231638219834622e+02 9.788287049383612839e+02 9.492879666118197974e+02 9.129084217169793192e+02 8.942969710653366064e+02 8.966970283751144279e+02 8.981991266132115470e+02 8.979975504851378219e+02 8.962403217129832456e+02 8.872017698380258253e+02 8.643919031387146106e+02 8.270561265267228919e+02 7.803762668761107761e+02 7.287644288609815248e+02 6.754753160055500985e+02 6.224410174651213765e+02 5.703456957797212681e+02 5.195086288929812781e+02 5.703865335447504776e+02 6.039321982969531746e+02 6.080474677878597731e+02 5.809337531882443955e+02 5.354905931969416315e+02 4.802839209925115256e+02 4.206415781582007867e+02 4.752710556436166485e+02 5.258689013638985443e+02 5.706151112516919284e+02 6.082890418157357999e+02 6.377108711434292445e+02 6.593306107106741365e+02 6.771881949177865181e+02 6.957698311208406494e+02 7.150001782076072914e+02 7.382671486289799532e+02 7.616832492921546418e+02 7.850593477197465972e+02 8.063105598696135985e+02 8.228657743701553500e+02 8.340229664740299995e+02 8.668140960746862902e+02 9.046886940767512897e+02 9.463546832987553898e+02 9.762265396440751601e+02 9.844512722174298460e+02 9.664658976241979644e+02 9.267688085788616945e+02 9.836171230944586341e+02 1.027649901422674930e+03 1.051480303602629874e+03 1.048724867472163396e+03 1.015468051816213915e+03 9.648114363777085600e+02 9.053638333469377812e+02 8.425128448734493531e+02 7.793622306673878484e+02 7.207705963365051502e+02 7.755127860136217350e+02 8.174585851627743978e+02 8.368221475579132402e+02 8.215365572475283216e+02 7.817097449293625004e+02 7.283796778487539996e+02 6.685211690680182528e+02 6.065379557663253536e+02 5.453523050921767208e+02
7.477924542450605259e+02 7.692211237382649642e+02 7.786727076899691156e+02 7.771644468228392952e+02 7.692862312520047681e+02 7.601537803196298455e+02 7.516534124299370205e+02 7.404805685804773248e+02 7.279963827542189847e+02 7.157359761322818485e+02 7.047539785721430690e+02 6.943794956411513795e+02 6.827740127321312684e+02 6.685566650528913897e+02 6.517291432476650925e+02 6.335977880326420291e+02 6.095255467883412166e+02 5.786144894069494740e+02 5.398477462460242577e+02 4.954884705057566521e+02 4.473898036623235157e+02 3.967181519550048279e+02 3.443980068589985990e+02 2.910853018174728959e+02 3.381576223935949770e+02 3.869941391845342196e+02 4.369833501803000217e+02 4.881175265637688199e+02 5.401935324598379111e+02 5.926284434523877280e+02 6.442689711022790107e+02 6.932025174329876336e+02 7.365971800793475950e+02 7.706477174818527374e+02 7.904529123852864814e+02 7.945051941928312544e+02 7.873283459368772128e+02 7.732942167378547538e+02 7.542273390028683480e+02 7.601109080416937331e+02 7.643417558260420037e+02 7.739001955386630698e+02 7.797395546592914570e+02 7.952678681597215018e+02 8.179546613004736173e+02 8.362473884175107059e+02 8.511156520336112408e+02 8.627439120429173727e+02 8.714645690093587973e+02 8.787384290754575886e+02 8.954618155786381521e+02 9.330225054808350933e+02 9.698594142462038690e+02 9.814204475588207970e+02 9.568831477413062885e+02 9.035626111121608801e+02 8.543179383723412457e+02 8.357066304651086739e+02 8.361609813187459395e+02 8.383717238100985014e+02 8.392592698235688431e+02 8.457211814295851582e+02 8.487316080186005820e+02 8.420434463582766966e+02 8.188771639414803758e+02 7.794372806274975574e+02 7.298798648214876721e+02 6.750986513325309488e+02 6.182700550621610773e+02 5.611355818028418980e+02 5.044561353949790714e+02 5.544478943648698532e+02 5.873107374412404624e+02 5.923142683371131625e+02 5.680800446879804895e+02 5.260093633344745285e+02 4.742092186449942801e+02 4.175715267161738211e+02 4.719572299011371115e+02 5.209815870473494215e+02 5.629642559303230200e+02 5.969348822572168274e+02 6.203003302637952174e+02 6.359218133187113153e+02 6.503130979545489936e+02 6.694750959674884143e+02 6.912725869913635961e+02 7.200110505435811774e+02 7.455491458240676366e+02 7.803531963570728749e+02 8.162049906848050114e+02 8.509614512510535178e+02 8.816590816203665781e+02 9.161904107643420048e+02 9.496039359864407743e+02 9.766163556527853871e+02 9.866134383753743577e+02 9.710698123814667042e+02 9.351195262091291625e+02 8.832353104864656643e+02 9.418269853608308040e+02 9.911237704708421461e+02 1.022431221306424618e+03 1.026083125364945317e+03 9.961991716890503312e+02 9.472504061718489083e+02 8.885368332704094883e+02 8.258623028449848107e+02 7.626477568293702234e+02 7.040562611436068892e+02 7.586927834713827679e+02 8.008740456859951564e+02 8.214135873255809202e+02 8.091754904119055709e+02 7.717606104630501704e+02 7.201090311658933842e+02 6.612430403354971986e+02 5.996022528414304134e+02 5.378586063831827460e+02
7.193370400392003603e+02 7.595174369369957503e+02 7.884437152719187907e+02 8.034526337145299522e+02 8.052396757555790145e+02 7.998184024758500072e+02 7.897319987503278753e+02 7.737091075859619878e+02 7.553554733874335625e+02 7.386202609593424313e+02 7.273876440930929448e+02 7.204169501983147939e+02 7.129754169291664994e+02 7.012347211677749783e+02 6.829429206006815321e+02 6.572271523274366700e+02 6.228229633723680081e+02 5.822014207610760650e+02 5.367605962665975312e+02 4.882746429060495075e+02 4.382557525453620997e+02 3.878172280263794391e+02 3.377499833451176983e+02 2.882953115197548186e+02 3.334836291655103651e+02 3.805553572964144564e+02 4.287327362191559814e+02 4.778879761521102409e+02 5.280614037877572855e+02 5.790270879170986973e+02 6.301368361925490262e+02 6.801854633422020697e+02 7.273045904988872508e+02 7.688974384910258095e+02 8.015858068764903237e+02 8.212110034188194732e+02 8.271272012508763964e+02 8.256370289392115183e+02 8.205054246486679403e+02 8.242849257670662837e+02 8.290925939809617375e+02 8.367644824132054282e+02 8.430954803447912127e+02 8.586237650397664538e+02 8.789079580615162968e+02 8.962648672274974615e+02 9.107439240337558886e+02 9.226441968040155643e+02 9.327281237696653307e+02 9.430031434789960940e+02 9.583706951096989997e+02 9.810746101371987606e+02 9.972891872158729711e+02 9.864084078763145271e+02 9.473667977177019566e+02 8.881977513561938622e+02 8.158351655500417792e+02 7.808623339077582841e+02 7.775710716144338903e+02 7.781285217855157725e+02 7.730757926473564794e+02 7.885631920382822955e+02 8.010731950793037868e+02 8.068042227608221992e+02 7.992257817742889756e+02 7.705853352940042669e+02 7.249544192236583058e+02 6.700977632340893706e+02 6.109093620522755828e+02 5.503072800635085287e+02 4.897922811598720614e+02 5.379026692842561488e+02 5.681261401233612105e+02 5.717354058857147265e+02 5.515481947794413600e+02 5.134859486425875730e+02 4.662069010963857068e+02 4.145035008424900411e+02 4.660291526036436380e+02 5.089430267020550787e+02 5.418133388592444817e+02 5.662984270456261129e+02 5.823154158970471599e+02 5.927493382774608790e+02 6.006834250214219537e+02 6.217441447461455937e+02 6.469137721194827009e+02 6.782397460587068281e+02 7.045518652211526387e+02 7.528929927597797587e+02 8.027804976297817348e+02 8.536493685653738339e+02 9.009522497347763874e+02 9.427427134757022031e+02 9.753284652160371024e+02 9.923715551067906517e+02 9.843583041952616668e+02 9.536171942471346483e+02 9.070309007289118881e+02 8.496609948970570940e+02 9.117909782998549417e+02 9.644163214248980012e+02 9.995869514417548771e+02 1.005410103390915879e+03 9.777015352327606479e+02 9.301231066937237983e+02 8.720786695886675943e+02 8.096517497974274420e+02 7.465348548764890211e+02 6.879434947372202487e+02 7.430193681292504380e+02 7.844675560025506229e+02 8.030061573161524393e+02 7.933884705540036748e+02 7.589678154171289179e+02 7.097950592554932427e+02 6.526105487196289232e+02 5.918616148802859698e+02 5.304042625138777112e+02
6.888925272359720111e+02 7.387151776261673604e+02 7.801089461084236518e+02 8.098153404235891912e+02 8.239202623591694419e+02 8.214795099877854909e+02 8.054492359720227341e+02 7.790406110995924109e+02 7.484368735097217495e+02 7.213689172755275649e+02 7.109998477971653301e+02 7.136386299742543997e+02 7.159361713763088346e+02 7.099378705008238057e+02 6.905371130168855416e+02 6.598266736910463806e+02 6.201895754097721465e+02 5.745797509645229866e+02 5.254828800900412489e+02 4.749590301127765315e+02 4.245525816940333357e+02 3.754439697848855531e+02 3.288854361854960189e+02 2.855085966922978287e+02 3.289986582028826660e+02 3.734876755485257718e+02 4.187371652176889825e+02 4.648387709882574654e+02 5.121115911116040706e+02 5.606271748263660584e+02 6.100816983369883246e+02 6.597407165798128972e+02 7.083977974427008348e+02 7.543333155857496877e+02 7.953059724240139303e+02 8.286798715624845499e+02 8.517329468984271443e+02 8.648770278397935272e+02 8.720440213494464388e+02 8.807349248764722915e+02 8.884077387042976852e+02 8.974950888365506216e+02 9.063755291199024668e+02 9.205139270265888172e+02 9.383199097269405229e+02 9.541802451087983172e+02 9.677666400533618116e+02 9.793196817165000994e+02 9.894735013631819811e+02 9.993679962842498981e+02 1.010379147206591483e+03 1.020970181733913591e+03 1.019224427084166905e+03 9.916623854841152479e+02 9.442164300644836885e+02 8.830999606783844911e+02 8.139374866740121206e+02 7.505860669631368864e+02 7.227271774174816983e+02 7.220043153903395705e+02 7.097245281795089795e+02 7.291079515404036329e+02 7.480568193825290564e+02 7.638196941127977198e+02 7.691500712744273187e+02 7.533288264790234052e+02 7.136186138723828662e+02 6.603501847385451811e+02 6.003106235855184423e+02 5.378190082951595059e+02 4.754472642407073408e+02 5.206263562918760499e+02 5.440621107856743492e+02 5.428490261046814567e+02 5.246000540617059187e+02 4.911149863686802632e+02 4.498779488137956264e+02 4.114368227235895006e+02 4.516763608364119023e+02 4.806071187297350775e+02 5.016436696424806314e+02 5.192663631687066754e+02 5.321550513660288289e+02 5.398510607581459908e+02 5.328267108393848730e+02 5.614196363451728757e+02 5.916964902168174376e+02 6.252698580352207500e+02 6.610200765296865484e+02 7.196094404545557381e+02 7.829602030078058306e+02 8.526685794490551871e+02 9.138213892731396299e+02 9.605160066055465222e+02 9.904180629159798173e+02 9.957049864169156308e+02 9.735170860670677939e+02 9.326640023284803647e+02 8.797949767115363784e+02 8.198353672672037646e+02 8.836460061320691466e+02 9.385847219749559827e+02 9.766873195270593442e+02 9.857156195011801856e+02 9.601564621144552802e+02 9.138060021907411965e+02 8.562826037170132167e+02 7.939780492348012331e+02 7.309060780729226963e+02 6.723148438940895630e+02 7.255055654159530150e+02 7.639844060242497790e+02 7.786771657232548023e+02 7.726099789803787417e+02 7.427331540731022415e+02 6.974171723983570246e+02 6.429479120059722845e+02 5.837632623466665791e+02 5.229843289481141255e+02
6.565228878465406979e+02 7.125904288291440025e+02 7.616495179245288227e+02 8.000420066840760001e+02 8.224440360075415128e+02 8.214175485328820514e+02 7.984031555376825509e+02 7.614509637179430683e+02 7.153288672352288131e+02 6.656971431409980369e+02 6.586541521088013269e+02 6.779364784486100461e+02 6.926483295742320934e+02 6.956934257179425458e+02 6.822824163079230857e+02 6.521667405921798490e+02 6.106160761528351486e+02 5.622150183781457145e+02 5.106551057675821426e+02 4.586109743332263520e+02 4.076795574963985587e+02 3.585567196385829334e+02 3.140621890386867108e+02 2.827256321309566260e+02 3.234767910445826828e+02 3.651222769911489650e+02 4.065318603078364390e+02 4.483670528985197166e+02 4.918271924215017634e+02 5.371814805619662820e+02 5.842342295307730637e+02 6.324691600216007146e+02 6.810962311081904090e+02 7.289941406080588422e+02 7.746309376230973385e+02 8.162836041609904214e+02 8.524022828511396028e+02 8.822654188856287192e+02 9.048942323398346161e+02 9.232638927165722862e+02 9.372375059492104583e+02 9.500981061335263576e+02 9.610619954883054561e+02 9.747006738999700701e+02 9.907075435775773258e+02 1.004648944414073640e+03 1.016666826235358258e+03 1.027068926129259353e+03 1.036187570964828183e+03 1.044139641346962890e+03 1.050142590205969100e+03 1.050695338666207135e+03 1.034430368075832121e+03 9.977892709122224915e+02 9.465342477380324908e+02 8.856968088933126637e+02 8.192212625879661800e+02 7.558697883519896550e+02 6.972803409976123703e+02 6.734602494876323817e+02 6.511349608413670467e+02 6.685179889833264042e+02 6.914448100014084275e+02 7.163260192994301860e+02 7.349458519660507818e+02 7.323282217000850096e+02 6.994790289799656193e+02 6.486831562974031158e+02 5.884771588652305354e+02 5.246489441489223964e+02 4.613631026170392602e+02 4.996696256322168779e+02 5.133706475338204882e+02 5.066182726025278953e+02 4.851371778306042870e+02 4.495935333093067356e+02 4.053468866558405921e+02 4.083705931493639127e+02 4.216078543980523818e+02 4.349644713982024768e+02 4.485070512268704306e+02 4.623115802055208405e+02 4.764320437604291101e+02 4.908939031975502303e+02 5.056412360648791946e+02 5.527120234429013408e+02 6.019566959151269430e+02 6.512752249862364806e+02 7.005250580892031849e+02 7.562910932401423452e+02 8.161508431791952489e+02 8.773910379108104962e+02 9.329600323218807034e+02 9.757842310048457648e+02 9.984759266172101206e+02 9.914804557157631280e+02 9.592495681662550169e+02 9.114920891419997133e+02 8.546197886681770797e+02 7.929667843051463478e+02 8.574915229915325199e+02 9.139625169765149622e+02 9.545577853062733311e+02 9.671228004025931568e+02 9.439220273488506336e+02 8.987524204063672641e+02 8.414839193313255237e+02 7.788942046876994709e+02 7.157161092998084087e+02 6.571249865212043915e+02 7.063838658901295275e+02 7.391601265423786344e+02 7.479724608452147550e+02 7.440499062801379750e+02 7.219436204582218579e+02 6.827528475559397521e+02 6.325609806978187635e+02 5.757963233378100085e+02 5.155982822099784926e+02
6.269997700710227946e+02 6.863768337341432471e+02 7.396920958055441133e+02 7.829751864911407893e+02 8.094129063144790734e+02 8.086394958856875519e+02 7.813074267059786280e+02 7.374004756325165317e+02 6.821890314938027586e+02 6.164509839689865203e+02 5.757005199234265547e+02 6.286845583194387928e+02 6.565929320233541375e+02 6.661070578164215021e+02 6.591992039667884455e+02 6.341990274114439217e+02 5.934107195768216343e+02 5.434844693544289385e+02 4.898757564593645384e+02 4.364744299833022865e+02 3.852797361382466192e+02 3.320141205737584187e+02 2.771673362198191626e+02 2.799451067293818483e+02 3.184296462558983762e+02 3.566300642345233882e+02 3.921741150485916023e+02 4.276369135719311885e+02 4.669245021468545929e+02 5.092305373683173002e+02 5.539463205876115808e+02 6.004976325976742828e+02 6.483977365464513696e+02 6.970158858814825180e+02 7.450960883431953334e+02 7.913876526775175080e+02 8.349764101657369793e+02 8.753024817491717613e+02 9.116693424039557385e+02 9.436389039925226143e+02 9.687954359217201272e+02 9.879693113875121071e+02 1.001741079954298471e+03 1.014938884585686537e+03 1.028436446895719200e+03 1.039431213058259345e+03 1.048865545502228542e+03 1.057261164828149504e+03 1.064753875342032416e+03 1.070647492764510616e+03 1.072741522620003479e+03 1.065556839666002361e+03 1.041150353985814718e+03 1.001301808169007927e+03 9.501526559161276282e+02 8.922765004272939677e+02 8.321205307556215303e+02 7.743622282922241311e+02 7.218649311950509855e+02 6.775698927138689669e+02 6.298907956699026727e+02 6.099280920937840165e+02 6.311296912534680814e+02 6.653161454237358612e+02 7.001867106591370202e+02 7.112195487328095851e+02 6.858254802918174846e+02 6.378165302992596253e+02 5.772702133925640737e+02 5.108772446582146927e+02 4.475246299816865871e+02 4.752956026194852370e+02 4.782818993099657519e+02 4.663179208938449278e+02 4.398037305250132363e+02 3.993007554221389341e+02 4.023236075794776525e+02 4.529833529794318565e+02 4.771766445681423079e+02 4.929977210831194725e+02 5.053982431189812701e+02 5.162376676582728123e+02 5.263796571372733979e+02 5.325519606248461741e+02 5.229664814713113401e+02 5.722113614693065529e+02 6.231345386957580104e+02 6.756829822220540791e+02 7.299515788331945032e+02 7.871579084466461609e+02 8.459911169356128084e+02 9.034230947937273868e+02 9.539488068763569117e+02 9.900289455513267285e+02 1.001433157636600072e+03 9.818270180641603702e+02 9.417000398443742597e+02 8.892314380489170844e+02 8.301223018924422377e+02 7.682603216542096334e+02 8.328462582090464821e+02 8.902568148808429669e+02 9.331179111895052074e+02 9.497575194293306140e+02 9.296296302527823627e+02 8.857640721609168395e+02 8.283705622825577848e+02 7.642796636662546916e+02 7.009263989069288527e+02 6.423353697390506341e+02 6.856447583594230082e+02 7.079695249723372399e+02 7.099220014841976081e+02 7.055582264487793509e+02 6.904396150208052632e+02 6.613475934530982840e+02 6.184612990607710117e+02 5.663877414471853626e+02 5.082373150157725377e+02
6.039694248993098427e+02 6.608996672224313897e+02 7.157778144914636869e+02 7.618400310043814443e+02 7.904391178120865789e+02 7.896539746724802171e+02 7.601672606082828452e+02 7.136090071305692391e+02 6.574940399945363652e+02 5.973855066955787834e+02 5.407266823936345190e+02 5.923141373813444943e+02 6.188270753815030503e+02 6.290331598116538316e+02 6.245481883187316043e+02 6.047930577065402531e+02 5.674730838588584447e+02 5.165861640507803259e+02 4.603700843586600513e+02 4.052296261276231917e+02 3.615881519667057660e+02 3.141079664527922546e+02 2.743923114016022282e+02 2.986390620264035647e+02 3.247539710413288958e+02 3.493945125115967585e+02 3.732483201322040145e+02 3.975338417577195287e+02 4.355324421388482392e+02 4.766107918046660075e+02 5.200523900301584490e+02 5.652402987569749939e+02 6.123118616557218274e+02 6.615232344475459740e+02 7.108797205251402147e+02 7.593264273426023010e+02 8.067962040303336835e+02 8.535513661127376963e+02 8.986383690327362501e+02 9.401155633397429483e+02 9.754572491994227903e+02 1.002869069166644522e+03 1.020815874145186967e+03 1.032487558434614357e+03 1.040229241871981685e+03 1.046140205102964273e+03 1.051424761556511612e+03 1.056847586900533770e+03 1.062718553673031920e+03 1.067852371124675074e+03 1.069766451725540719e+03 1.063582444658116401e+03 1.040735737594504371e+03 1.003014469874166821e+03 9.543659246925983553e+02 8.993310303053466441e+02 8.421012941266550342e+02 7.860652598585787700e+02 7.331899818988839570e+02 6.839395473651003385e+02 6.362181297969931393e+02 5.907238085392664289e+02 5.725394416202108232e+02 6.160719240413801572e+02 6.701679252198387076e+02 6.930635587815229428e+02 6.760305841596075425e+02 6.310103396999976439e+02 5.701759041844552485e+02 5.015248548708421481e+02 4.338857746047590354e+02 4.446500112091862889e+02 4.388775019286414931e+02 4.251234484331122871e+02 3.932569709734937078e+02 3.962785434885955738e+02 4.525200215964880499e+02 5.008948946124119743e+02 5.302717515468917782e+02 5.484418856208714033e+02 5.602235216727790430e+02 5.680076930965267366e+02 5.726205550237154966e+02 5.686911556710226705e+02 5.410668780618749452e+02 5.903116604593878947e+02 6.421056169396048290e+02 6.969065076350638037e+02 7.538405078729456363e+02 8.129647396873348271e+02 8.716516988668361137e+02 9.264319596322286543e+02 9.718293850671534528e+02 9.998460411019085541e+02 9.992004800389017873e+02 9.702544239014763434e+02 9.240566015701649576e+02 8.681321479571837472e+02 8.075075013991499873e+02 7.454109438078331777e+02 8.088869109137008309e+02 8.665783053989051723e+02 9.114512513856512896e+02 9.332183788899288857e+02 9.184046484622664366e+02 8.763009851421384155e+02 8.190475573556446989e+02 7.550359133141173515e+02 6.903319864642310222e+02 6.278735668936845968e+02 6.597901934025561559e+02 6.691994429763027483e+02 6.648884032704276024e+02 6.586173739812643362e+02 6.467983138510588788e+02 6.273757047639888924e+02 5.966485798143336297e+02 5.534855309172837678e+02 5.008970322791107606e+02
5.735142482919842450e+02 6.308594472826159745e+02 6.894665087081888259e+02 7.385497499584329262e+02 7.686486111711734566e+02 7.675447984595393791e+02 7.367105242017437376e+02 6.887734607965925306e+02 6.318603426744591616e+02 5.711834455566806810e+02 5.099739208410659330e+02 5.580553464535705643e+02 5.803226104865203752e+02 5.881884578137887729e+02 5.832858270677681958e+02 5.652669819373654718e+02 5.316554134307945105e+02 4.799689397290076727e+02 4.187534861710179257e+02 3.532148970438412903e+02 3.172552501051150102e+02 2.688704471137056089e+02 2.716177752193688661e+02 2.855601627741274910e+02 2.996448086993520405e+02 3.139520975662237561e+02 3.285753031357674558e+02 3.579708619382714687e+02 3.987211137575471298e+02 4.407861305982651174e+02 4.843191456665398391e+02 5.295063042019608019e+02 5.765777022598518897e+02 6.258236523322955236e+02 6.758850879577687465e+02 7.240526667805795569e+02 7.724468559436797932e+02 8.238516342245007991e+02 8.760277183147695723e+02 9.245625899367714737e+02 9.652803024561875418e+02 9.944834531735199334e+02 1.009688071350605355e+03 1.016757512473610063e+03 1.018585647062415319e+03 1.020160992543903490e+03 1.022011907615020618e+03 1.025119887309084106e+03 1.030676633052858051e+03 1.037017257974009908e+03 1.042213644711055849e+03 1.043546391063062401e+03 1.031588582723790978e+03 1.001283373417574353e+03 9.573162365268665326e+02 9.051246110052599079e+02 8.493323681234762716e+02 7.933261658965535617e+02 7.391433475819084151e+02 6.876797026040580931e+02 6.391481533385190232e+02 5.945171552670726669e+02 5.557608505881379415e+02 6.087917812089492600e+02 6.553415863197334374e+02 6.802270448534303569e+02 6.686072544149590158e+02 6.269650332405200288e+02 5.662954684736931767e+02 4.901164966406908547e+02 4.204061432594103849e+02 4.072272317250158835e+02 3.941342638736811068e+02 3.872163809272072399e+02 3.902362505229763201e+02 4.429596072161004372e+02 4.956995572015824223e+02 5.434935702566252758e+02 5.781220733203961117e+02 5.993380171629963797e+02 6.113008912644603470e+02 6.163201868759425679e+02 6.148616657142450777e+02 5.997394346327881749e+02 5.600715808511436080e+02 6.093162333021803079e+02 6.611100170600349202e+02 7.159538512396331953e+02 7.745430206989058206e+02 8.368461745125044899e+02 8.955411383258650631e+02 9.475669028208840245e+02 9.871690440956531347e+02 1.005871906495140479e+03 9.932107647988192412e+02 9.563813243349047752e+02 9.054468090307044577e+02 8.470735981727202670e+02 7.856458075797097536e+02 7.241662620754067348e+02 7.875028823037482653e+02 8.458605287017184082e+02 8.926899307813464475e+02 9.180775471884883245e+02 9.077396555369988391e+02 8.673975303559210488e+02 8.097113069749656233e+02 7.439594741501283579e+02 6.769950635210200289e+02 6.136423547273842587e+02 6.264860127468579094e+02 6.241153053141545115e+02 6.143766944392218647e+02 6.052670836684910682e+02 5.941238222875512065e+02 5.800057671275448001e+02 5.610391750312938939e+02 5.334200627507443642e+02 4.935731585964820738e+02
5.234644018364472231e+02 5.931769148923889361e+02 6.632911613456747091e+02 7.160077859451109816e+02 7.465091126897012828e+02 7.439183159067168845e+02 7.116002544756044017e+02 6.627045416815096814e+02 6.053573089662338589e+02 5.442996008019864576e+02 4.821142110593883103e+02 5.253331598129160511e+02 5.415911963424880469e+02 5.455476985006406494e+02 5.386827238592660478e+02 5.209297864416497532e+02 4.907763216566236792e+02 4.399529449092503910e+02 3.753919960891409460e+02 3.014190364601739134e+02 2.633770504237098748e+02 2.661235909047957193e+02 3.136725189884988936e+02 3.356243225700793573e+02 3.472018463040784582e+02 3.519817194839866374e+02 3.447454461073034508e+02 3.785054927360661168e+02 4.173886498108850560e+02 4.564740763651459474e+02 4.949509126692183258e+02 5.333094259321600248e+02 5.716245651305789579e+02 6.074400432229556372e+02 6.414741010840574518e+02 6.841290668342909385e+02 7.288604878446499242e+02 7.865506424292957490e+02 8.478492429093416831e+02 9.023900472728006434e+02 9.444527851344290639e+02 9.681641331304430196e+02 9.764151854417451659e+02 9.781543515700140006e+02 9.759483116729073799e+02 9.742311986744035721e+02 9.730531747760646795e+02 9.737430948570599867e+02 9.802322269865877615e+02 9.887313347332769808e+02 9.980131431251768390e+02 1.007636801842847490e+03 1.009384274461939071e+03 9.926198951361535592e+02 9.559390765042825251e+02 9.072955852006456325e+02 8.526392492976470976e+02 7.960949309331467703e+02 7.401946233325716094e+02 6.862573955167413260e+02 6.348463012218430777e+02 5.862419281082813995e+02 5.398150110750068507e+02 5.960311237395461603e+02 6.427906117159477617e+02 6.701256655528370629e+02 6.642811555790163993e+02 6.287935872002755104e+02 5.765858600043914066e+02 5.176012325676150567e+02 4.638043819603776683e+02 4.266514209986308401e+02 3.811804663555582238e+02 3.841977869564212256e+02 4.290695415117439779e+02 4.775267706666683125e+02 5.272515444574100911e+02 5.746999939573049687e+02 6.148383033040114469e+02 6.420560834779997776e+02 6.562046912623203525e+02 6.597484103328773699e+02 6.530583099039322406e+02 6.278999187923154750e+02 5.802702440583557291e+02 6.320642991623448097e+02 6.863389385137746785e+02 7.433791765236912852e+02 8.032741066946957744e+02 8.636880874809590978e+02 9.204033120870815310e+02 9.684685694553857047e+02 1.000715692994154892e+03 1.006635490927551587e+03 9.825808868773098084e+02 9.392416915746664472e+02 8.848036351029185198e+02 8.248503598128896783e+02 7.627947205995945978e+02 7.042032232012576287e+02 7.678441182523501993e+02 8.271676591474698625e+02 8.761100534764926806e+02 9.051092234311744278e+02 8.996525171197531563e+02 8.614055084558526687e+02 8.024624293303819513e+02 7.326934201856312256e+02 6.629825780742626193e+02 5.996299115738966066e+02 5.863631463615832899e+02 5.732701834612535094e+02 5.603707190124440558e+02 5.477066034624989470e+02 5.352159742399520610e+02 5.228679159497962701e+02 5.106119488075152049e+02 4.984235689264768325e+02 4.862574440285350761e+02
5.272699366252934396e+02 5.898031876048421509e+02 6.504514161908049346e+02 6.990749578598373546e+02 7.260903481577671528e+02 7.193915817436184170e+02 6.847472540953541511e+02 6.350899387480336600e+02 5.781309836906127657e+02 5.178715294833160669e+02 4.564024893612320284e+02 4.935102621106697143e+02 5.026495465897356780e+02 5.021121652602871563e+02 4.924614728896753491e+02 4.738254127719154098e+02 4.471719831831958913e+02 4.021094823123956985e+02 3.391687716033467836e+02 2.578850692806471443e+02 2.606308250138425251e+02 3.121132844008978395e+02 3.570185168655679604e+02 3.824969886380886805e+02 3.924761453495734145e+02 3.892149653038328552e+02 3.613337528866483694e+02 3.783107989055022813e+02 4.214068888102916048e+02 4.561463448679282919e+02 4.860356562257252335e+02 5.140289993876102699e+02 5.411471920760876628e+02 5.645975543745913683e+02 5.791800777245099425e+02 6.227137235078739650e+02 6.697858436490066651e+02 7.394986718533482417e+02 8.183589163482721460e+02 8.769185127926306222e+02 9.152534980662680937e+02 9.293248708332454271e+02 9.301139022554970097e+02 9.264626383258884061e+02 9.214145989835855062e+02 9.174769036114790879e+02 9.133663149912025574e+02 9.097427725020322669e+02 9.194464294712685160e+02 9.302294255248579020e+02 9.425327898079842726e+02 9.604853415474749454e+02 9.756749840401698748e+02 9.750379467401737656e+02 9.481186071092942029e+02 9.041834842676494191e+02 8.510361217039715029e+02 7.940400453893703343e+02 7.364805430092509368e+02 6.801064628535732481e+02 6.255701497515539131e+02 5.737760289481071823e+02 5.245311711468209523e+02 5.822216098421272363e+02 6.303719981511970900e+02 6.604884477090107566e+02 6.602583246796593812e+02 6.305098953626701359e+02 5.844476712365152480e+02 5.316150516855676642e+02 4.790074510290316425e+02 4.294889335219959889e+02 3.782057136953325198e+02 4.122278592075819574e+02 4.537744556824136453e+02 4.995794061335080301e+02 5.472727297028865223e+02 5.942222849623632328e+02 6.370392866461613721e+02 6.713566400514806674e+02 6.915488044094028055e+02 6.962919058613124434e+02 6.864213759465692419e+02 6.540262033259518830e+02 6.018056524344494846e+02 6.535994954892344140e+02 7.084433396373203777e+02 7.670324821285786356e+02 8.295748087480318418e+02 8.894808017749410283e+02 9.436357974759431499e+02 9.865211222460907265e+02 1.009939885248831501e+03 1.003200694366821153e+03 9.703205807303116899e+02 9.217461134665686586e+02 8.646401726085354085e+02 8.039593873050172306e+02 7.436785461332127625e+02 6.853913976892076789e+02 7.494054557595002279e+02 8.098203669819550896e+02 8.611769848037823749e+02 8.946095969967800556e+02 8.961290176902405165e+02 8.622187385318427459e+02 8.019215345619687696e+02 7.230630821425177146e+02 6.778759639500525509e+02 6.371261210397722152e+02 6.385355742988068641e+02 6.282416500575433247e+02 6.156318202442032543e+02 6.004450780524883839e+02 5.839633163047498101e+02 5.668359320872136777e+02 5.459957612078075044e+02 5.196766920968666454e+02 4.828551391094742939e+02
5.234991063674440284e+02 5.846458017805226746e+02 6.412357815952630062e+02 6.853071984565303865e+02 7.065268618479972247e+02 6.931215428145732176e+02 6.549309646567072605e+02 6.045898522804715185e+02 5.493536326726092511e+02 4.915871282650917351e+02 4.323703559172882365e+02 4.612733729317235429e+02 4.630727507954944713e+02 4.584687763658723725e+02 4.456651494703485810e+02 4.241221453100292820e+02 3.980155920827722298e+02 3.629755427347680552e+02 3.163757864435665397e+02 2.551416426260482524e+02 2.979098268646030760e+02 3.477444189127487562e+02 3.941724887420930941e+02 4.256346307097518888e+02 4.379164286754957516e+02 4.357025241442254924e+02 4.179895712198999718e+02 3.954939549758588555e+02 4.131158660268625908e+02 4.313003479753747342e+02 4.501121356960455273e+02 4.698482153065687612e+02 4.908144048847993304e+02 5.134845736606655464e+02 5.384298552321454281e+02 6.017834032617010962e+02 6.714956042567915802e+02 7.445343607369483152e+02 8.093174952509518789e+02 8.575769086394562919e+02 8.822201008934639503e+02 8.838761392202549132e+02 8.764256341249817979e+02 8.671507664626349197e+02 8.609849215732230050e+02 8.564474473769489578e+02 8.499720076199448613e+02 8.400319945594598039e+02 8.549360081416836010e+02 8.669355949788828184e+02 8.784572161584015930e+02 9.051250784009456538e+02 9.354385232513515120e+02 9.509044057306400646e+02 9.366778207365310891e+02 8.981864164838079887e+02 8.466818403230304284e+02 7.892795780070159708e+02 7.302293431363333411e+02 6.718948165493118267e+02 6.154838836500488242e+02 5.616198046290903676e+02 5.098257829185363335e+02 5.681627601789489290e+02 6.173312630631876345e+02 6.496515763937132988e+02 6.540492999017614011e+02 6.289247751807624809e+02 5.868512232819851988e+02 5.364572145064096276e+02 4.832225476931284334e+02 4.295386201132135398e+02 3.752337916542204539e+02 4.188642421115011985e+02 4.635217235195912053e+02 5.095816218497992054e+02 5.563634539867113062e+02 6.026465997392906502e+02 6.465988863171502317e+02 6.850213827248189773e+02 7.129477347576464581e+02 7.232270883344638150e+02 7.121635360886534727e+02 6.771177583053170110e+02 6.250270931228059226e+02 6.798711584737758358e+02 7.375188344261680413e+02 7.972938615879149893e+02 8.580010566248000714e+02 9.159656425914882902e+02 9.665438805323276483e+02 1.002912492355784593e+03 1.014867401116971791e+03 9.955162699540529729e+02 9.553184257665154746e+02 9.026925422636187477e+02 8.434420989682787422e+02 7.809726714225047317e+02 7.223811045516714557e+02 6.675356093943645419e+02 7.316603302138122444e+02 7.930215209189107100e+02 8.469573364377163216e+02 8.858727745635685551e+02 8.980883711623846466e+02 8.760726780436516492e+02 8.318971124783171263e+02 7.779088962522516795e+02 7.394305125782237837e+02 7.063952693118343404e+02 6.900430636479400164e+02 6.743862456361571276e+02 6.580829048211053305e+02 6.379611323735098267e+02 6.150268780820777010e+02 5.886430718466872349e+02 5.577124876490490806e+02 5.230707018305283782e+02 4.794537859596075577e+02
5.184944924966512190e+02 5.796315563318870545e+02 6.341417643661606007e+02 6.738165004692093589e+02 6.861529594394640981e+02 6.633756570147870661e+02 6.196238616555028784e+02 5.679726313269346747e+02 5.169578203297847949e+02 4.644516296237974302e+02 4.095211846724996008e+02 4.267280661350458786e+02 4.221607292063583259e+02 4.153033639570980426e+02 3.997539728830272452e+02 3.723388434533803206e+02 3.424602328353071243e+02 3.120930666841186962e+02 2.885504259425141527e+02 2.523989923207276718e+02 3.110699264935569772e+02 3.689083456371928946e+02 4.212220173812009989e+02 4.616638840893803604e+02 4.817994698308288548e+02 4.853320743714119772e+02 4.756569876856688097e+02 4.588468171924313879e+02 4.717068944426205235e+02 4.897528762880430122e+02 5.049574985325157854e+02 5.216430660445956846e+02 5.400596911736788570e+02 5.587040551447526013e+02 5.707749134990749553e+02 6.299636414426605597e+02 6.941250866162512239e+02 7.551594430652281744e+02 8.054100461171267398e+02 8.374733976403917950e+02 8.440171157216623214e+02 8.338538294259202530e+02 8.184716378192687216e+02 8.022558808990431771e+02 7.984368015559226706e+02 7.958305370556089429e+02 7.888170720342035338e+02 7.766788585790776551e+02 7.927042809560718979e+02 8.039153943286892172e+02 8.151039213149929310e+02 8.424500413224508293e+02 8.926971822522110642e+02 9.237201360353237760e+02 9.213786481275104734e+02 8.880856114122217377e+02 8.382797967083164394e+02 7.807001940492266385e+02 7.204704232528749799e+02 6.604623557879297095e+02 6.022338825892620662e+02 5.473890872317332423e+02 4.955945193162484657e+02 5.537955417703705052e+02 6.029445318743393045e+02 6.360931097603173612e+02 6.436520421309720632e+02 6.228079389649869881e+02 5.841191008606996320e+02 5.355370093031393708e+02 4.824117044051883454e+02 4.276198410917135107e+02 3.722648922900017396e+02 4.188427019034948557e+02 4.651654995923602769e+02 5.111070356040129923e+02 5.563855900281720324e+02 6.009321027826167665e+02 6.448905503218617241e+02 6.859378138628455872e+02 7.195364876855345528e+02 7.385471696823427692e+02 7.323569051758037176e+02 7.004051447206423973e+02 6.504742086465371358e+02 7.053180209603932553e+02 7.639071137223237429e+02 8.246446637051284370e+02 8.845753461678876874e+02 9.401671530203545899e+02 9.861310532359580066e+02 1.014728084731538047e+03 1.014782793420953226e+03 9.862724595968081758e+02 9.403874288521874405e+02 8.848589062216028651e+02 8.249130068985350590e+02 7.639956623232735637e+02 7.054041997925839951e+02 6.505588078629664324e+02 7.138512527389571005e+02 7.756167582113286016e+02 8.317200899245700612e+02 8.758699604201747206e+02 8.992320634555728702e+02 8.915633107022410968e+02 8.601017142697832014e+02 8.193004149644814333e+02 7.829040314814269550e+02 7.493200138114307265e+02 7.237075842544512625e+02 7.015655427565321816e+02 6.777630623111805335e+02 6.497894646058130093e+02 6.184755602741900020e+02 5.838538242891473828e+02 5.480939898585095307e+02 5.184490226946804796e+02 4.760552824076964384e+02
5.121318651504443551e+02 5.731030876644286991e+02 6.260961078923763807e+02 6.619974943367158176e+02 6.661772112929227205e+02 6.338793712849120539e+02 5.793656427523549155e+02 5.209639416625876720e+02 4.798109552636587978e+02 4.373857589717190422e+02 3.878349085027923593e+02 3.901364063567401672e+02 3.790059909864041856e+02 3.737097814986169055e+02 3.574353096881405918e+02 3.194921910796395537e+02 2.799286118144289617e+02 2.441770749756468035e+02 2.469169414188685607e+02 2.496571170382161711e+02 3.193690749144628285e+02 3.858095491465110172e+02 4.433179437262127749e+02 4.907013181244515749e+02 5.216573563116486412e+02 5.343174843761660213e+02 5.342373800504857400e+02 5.285577127839961804e+02 5.350599831660492782e+02 5.509586158370453859e+02 5.635489199984722291e+02 5.764888388256841836e+02 5.918549937224781843e+02 6.060731524681714291e+02 6.073643731990100605e+02 6.508982720107460409e+02 7.170286393145872808e+02 7.683249341307540590e+02 8.019492554398904076e+02 8.122782775104145685e+02 8.013554729549758804e+02 7.804916064367495210e+02 7.591003207073183603e+02 7.389029332681246842e+02 7.398457688935911847e+02 7.387257116611103811e+02 7.318240556558880598e+02 7.180877264442365231e+02 7.348447069179547952e+02 7.453240864222002529e+02 7.565125151763056692e+02 7.972626637729443928e+02 8.638738654762615852e+02 9.030947117520598795e+02 9.068423797050303392e+02 8.765913364712899920e+02 8.277694380217963044e+02 7.699048516255697905e+02 7.086242965431440552e+02 6.470196184451010595e+02 5.884294591079435577e+02 5.335845847421072676e+02 4.817899823267042052e+02 5.389379367401634227e+02 5.863547227722808657e+02 6.178023815273240871e+02 6.260217642570225962e+02 6.113991515862362576e+02 5.768736843418503213e+02 5.304755831507225139e+02 4.784144669866390132e+02 4.242936924590724175e+02 3.692992056668841201e+02 4.171552166653934819e+02 4.634184336328438008e+02 5.074495720009244337e+02 5.488687522463866344e+02 5.888620561429672762e+02 6.322783308701704073e+02 6.759356754622862127e+02 7.150517572155922608e+02 7.425526745015180268e+02 7.474897428988067531e+02 7.239012167387651289e+02 6.790665593244640377e+02 7.315203221495472690e+02 7.900739757587313079e+02 8.513391655537049019e+02 9.104662719964535427e+02 9.631408089751250827e+02 1.003425662677171431e+03 1.022881261756074537e+03 1.011021219353662445e+03 9.747067456170993864e+02 9.242119433350559348e+02 8.664271909181155706e+02 8.059920182447001480e+02 7.464012492284598466e+02 6.892276460402217708e+02 6.343891620485790099e+02 6.974899544227781689e+02 7.597854272842731689e+02 8.178026041405781825e+02 8.661189475310478656e+02 8.969320417511314645e+02 8.998597158347243976e+02 8.755981740703249443e+02 8.382329320723073351e+02 7.975119968026874631e+02 7.579582671061730252e+02 7.239152692457835201e+02 6.976306367596635027e+02 6.691373051539345624e+02 6.381370503736330875e+02 6.032391184122898267e+02 5.614387184418220613e+02 5.145119409298262099e+02 5.002147140713445310e+02 4.726580430014817580e+02
5.054198386476022620e+02 5.663073399318535621e+02 6.186572326845953285e+02 6.527451830753369677e+02 6.520769973729026106e+02 6.107800071682368070e+02 5.335889860761500358e+02 4.547309900710131956e+02 4.229470715797651224e+02 3.939622483105920878e+02 3.664462907440173467e+02 3.490481352704915139e+02 3.319343338667987382e+02 3.352134322974242764e+02 3.270226828102918262e+02 3.053010500043466209e+02 2.772656675356878964e+02 2.414405937555432047e+02 2.746957390104875003e+02 3.002182166334443991e+02 3.502691564895333727e+02 4.059489569847462462e+02 4.610561336135356783e+02 5.114475015412408538e+02 5.522661529157389850e+02 5.777542296616569502e+02 5.890173302800769761e+02 5.938790756526256018e+02 6.018546736745912540e+02 6.142938452936458589e+02 6.251484979490902560e+02 6.350808859461560587e+02 6.467013947847896134e+02 6.615831101911642236e+02 6.707187301599574312e+02 7.026945932855002184e+02 7.489248435628495599e+02 7.819234058033506471e+02 7.917575642271750667e+02 7.784173369112677392e+02 7.537432925262855861e+02 7.238473996392531262e+02 7.005093006020872508e+02 6.803119699221442715e+02 6.849988737206417682e+02 6.860232467622381591e+02 6.798283583629300892e+02 6.632425851693302548e+02 6.819847130484415629e+02 6.904788072430123975e+02 7.222626059415475765e+02 7.920996622768407178e+02 8.517834331958474650e+02 8.901387928313179145e+02 8.948521260737562670e+02 8.653173635550635936e+02 8.165589268532359029e+02 7.582093004010263257e+02 6.961182565143082002e+02 6.336021164259342413e+02 5.750118690949143456e+02 5.201669283265858894e+02 4.683723039257882874e+02 5.237299867253307184e+02 5.667064100351258276e+02 5.917581255443478767e+02 5.985278047075746599e+02 5.901810200489549061e+02 5.620300658121570905e+02 5.184571986593516613e+02 4.683521165077669366e+02 4.171370875847925959e+02 3.663365196788179787e+02 4.159703224109294979e+02 4.600007404326234450e+02 4.991621732491455532e+02 5.319246501069593478e+02 5.597147936659404195e+02 6.053323312958325459e+02 6.535460047983128788e+02 6.993067256288408089e+02 7.364425080491952258e+02 7.567660028024419034e+02 7.485513987432365184e+02 7.126393533898205987e+02 7.501344441671252525e+02 8.134850682704898190e+02 8.789882106061930926e+02 9.373408476845685300e+02 9.861724475362018438e+02 1.019185751928514492e+03 1.026081618094817713e+03 1.002702911211235460e+03 9.597524665224137834e+02 9.055679055746771837e+02 8.459074341662875440e+02 7.841432116205788816e+02 7.255516696446868536e+02 6.707061505235965342e+02 6.189114664235521559e+02 6.817715404499050464e+02 7.444439587775719929e+02 8.039167123559219590e+02 8.552894285814860496e+02 8.912400227646661506e+02 9.012341155765972189e+02 8.804422493109743755e+02 8.420156733264584545e+02 7.945309981826268313e+02 7.434338124048132386e+02 6.961373430755278378e+02 6.653382844985401334e+02 6.336667311736449619e+02 6.015345871560319893e+02 5.680777431701624209e+02 5.250725215532811490e+02 4.627172337762119696e+02 4.659890556675149469e+02 4.692614353090669397e+02
4.987454132776472306e+02 5.597632434841870008e+02 6.127106221487515541e+02 6.483932373085049221e+02 6.516007560950954485e+02 6.169994354658524571e+02 5.580523273748849533e+02 4.922273761228796047e+02 4.767325567447595631e+02 4.534667683171372801e+02 4.239267810834242596e+02 3.862282222589805656e+02 3.155295086717582649e+02 2.994725163943763278e+02 2.840922795714712379e+02 2.688552839518073938e+02 2.537572083589901126e+02 2.387045728657681138e+02 2.806663187293457895e+02 3.211867783734071509e+02 3.680181186916136085e+02 4.193675586908037758e+02 4.724037948872939410e+02 5.241093224902878092e+02 5.710332812149350730e+02 6.092294219286790167e+02 6.344937415406200216e+02 6.498790280496524474e+02 6.626382103999540050e+02 6.759830542906147457e+02 6.866773115613789287e+02 6.960121897017521633e+02 7.052940474271385938e+02 7.209737735966327818e+02 7.359645925832778630e+02 7.583638999142629018e+02 7.815235501885815665e+02 7.884120734368391368e+02 7.697510820930983755e+02 7.350807493559894965e+02 7.019531675000098403e+02 6.652565041940541732e+02 6.456641404309665404e+02 6.254668703796854743e+02 6.335584885364659158e+02 6.379759550356226327e+02 6.340661613482780012e+02 6.114481704244423099e+02 6.356979464703828171e+02 6.622605676594350825e+02 7.292405141517347147e+02 7.929985451227519206e+02 8.474475473892103992e+02 8.826456490496701690e+02 8.853521272941776488e+02 8.548879464587466828e+02 8.054328298025891399e+02 7.463611511129884093e+02 6.835552363154505429e+02 6.205092829928476021e+02 5.619189536088252908e+02 5.070739583392624468e+02 4.552793224038857147e+02 5.055186099530667434e+02 5.386220897463006168e+02 5.551399016386908443e+02 5.619464503093810208e+02 5.580852888507334910e+02 5.364368823104967987e+02 4.952218098171898077e+02 4.463794301166503828e+02 3.997162365577211176e+02 3.633754268028888532e+02 4.066457092645921421e+02 4.409786432372557101e+02 4.695383840484728921e+02 4.924644993749175796e+02 5.082134750483376138e+02 5.655966866890112215e+02 6.222116698558382950e+02 6.763208670469996378e+02 7.232505200030597052e+02 7.587540720779496723e+02 7.765702430747311382e+02 7.782997150208808534e+02 7.953198272484547715e+02 8.540628849733046764e+02 9.116079605335619362e+02 9.642560880496486106e+02 1.006703831978044491e+03 1.030727807350353260e+03 1.025084798420074094e+03 9.928586329535581854e+02 9.444518487384232230e+02 8.872105167593737178e+02 8.265575995366058351e+02 7.668225655273897701e+02 7.099027053433987930e+02 6.558737450002693095e+02 6.040790985362193624e+02 6.659462383958302780e+02 7.287090571809243329e+02 7.891668055166909426e+02 8.426776106939103101e+02 8.823202682717205789e+02 8.977086485150338149e+02 8.796866822491170979e+02 8.399094057773953637e+02 7.853822243637747533e+02 7.159573244496599500e+02 6.526043255820035256e+02 6.160153903017142056e+02 5.817656056641098985e+02 5.494208217073216929e+02 5.186682044497704283e+02 4.888430993768625967e+02 4.594481939803850992e+02 4.956591305505908167e+02 5.191025652836734707e+02
4.918345322407421349e+02 5.530654712783572222e+02 6.075235037746698481e+02 6.472819972658676306e+02 6.592804275824508977e+02 6.337211134387002858e+02 5.835380216652256422e+02 5.342924423692227265e+02 5.300996492842897396e+02 5.103474975331395740e+02 4.796624870079704124e+02 4.399898144133223354e+02 3.852411906422552761e+02 3.591057924551669771e+02 3.354495891125623075e+02 3.088052404238176223e+02 2.769844538032394894e+02 2.359915510101212988e+02 2.811594177572085869e+02 3.264053653728291238e+02 3.739845504879045279e+02 4.242532168743026091e+02 4.763647698685733189e+02 5.287523645468403402e+02 5.792995121990225016e+02 6.254620068646423761e+02 6.644354792491013768e+02 6.933336329642476130e+02 7.144729532897732724e+02 7.324470148042096298e+02 7.453729656237144354e+02 7.556286127245216449e+02 7.655640584331997616e+02 7.788341304206155655e+02 7.914461666846326580e+02 8.024535568787590591e+02 8.043593828071700500e+02 7.838933932648662903e+02 7.419163502442218032e+02 6.848999504495658357e+02 6.482916901084147412e+02 6.104114712952222135e+02 5.938664925171387949e+02 5.736723638150014040e+02 5.851685627412817894e+02 5.942562847419681020e+02 5.976336323704562119e+02 5.889525426379323108e+02 6.339103404171344209e+02 6.806081002818390289e+02 7.380143652719882539e+02 7.962901414659721695e+02 8.465219107160806971e+02 8.782052867929444346e+02 8.776469487354322609e+02 8.453857514131987045e+02 7.947665736387533570e+02 7.347240765254543930e+02 6.710417828191325498e+02 6.076900034638365469e+02 5.490995989550918921e+02 4.942545602072195834e+02 4.424599207930578473e+02 4.808867416037823546e+02 4.993724043046754559e+02 5.087559828814730167e+02 5.187760481824586805e+02 5.202597813689915256e+02 5.033590934278381610e+02 4.612646379944161481e+02 4.068911705046051566e+02 3.574688674184106389e+02 3.604147267702350632e+02 3.803778047430279798e+02 4.005765681289258850e+02 4.212761955377188201e+02 4.425206810458659561e+02 4.646806246182129030e+02 5.232714342844303701e+02 5.866236833551145082e+02 6.489481137949749154e+02 7.022959846040854472e+02 7.491001615739090767e+02 7.883790073554804394e+02 8.175407463962063730e+02 8.463589847199967835e+02 8.932202620144810226e+02 9.428186344832648729e+02 9.890267109081563603e+02 1.024324470587965152e+03 1.037743720331228815e+03 1.020012793349484241e+03 9.806827360523185462e+02 9.279627280005419152e+02 8.676408421664032176e+02 8.042873029564600529e+02 7.456957042348531104e+02 6.908500778644046250e+02 6.390552841559170929e+02 5.898102878171831662e+02 6.484011747552311817e+02 7.117541333199724249e+02 7.728989470674870290e+02 8.277076479030207565e+02 8.699527480242965112e+02 8.906166465653180921e+02 8.780758122289845460e+02 8.411430053156228723e+02 7.907815178065260397e+02 7.344642292943331086e+02 6.815468269604826901e+02 6.370196383436162932e+02 5.953350130847637729e+02 5.548888315608245421e+02 5.158912884145250928e+02 4.807222282467312198e+02 4.561880030352949120e+02 5.095382088899771702e+02 5.519215346113875285e+02
4.839629886046980687e+02 5.450425227409959916e+02 6.012251732354666274e+02 6.463073103407537019e+02 6.711471097709431888e+02 6.646064590760481678e+02 6.351181026854244465e+02 6.046084183033046884e+02 5.871479064046894791e+02 5.634024476988588503e+02 5.290624557966265229e+02 4.869471187255459199e+02 4.392543569602282787e+02 4.027383877689366614e+02 3.666513009091232789e+02 3.266079489018130175e+02 2.826499474963071634e+02 2.332801678669175374e+02 2.786468188115512135e+02 3.247744229867229251e+02 3.725224673502449377e+02 4.222059395202118708e+02 4.736534898928367738e+02 5.261661938823062883e+02 5.785659665832863539e+02 6.293050879065239087e+02 6.765767552088351522e+02 7.183913561353303976e+02 7.524376449781836982e+02 7.790244577760901166e+02 7.973922252525073873e+02 8.103722721915102056e+02 8.207092283316200110e+02 8.312324944604092707e+02 8.376186765792687083e+02 8.351122414239563341e+02 8.149554180123848255e+02 7.740966982841268873e+02 7.145124856587974591e+02 6.356550541465408060e+02 5.935903919016276404e+02 5.586169900241335426e+02 5.452534619122469621e+02 5.244274208824325569e+02 5.387131129724109542e+02 5.523433994916478014e+02 5.634022357774761076e+02 5.675642451676225164e+02 6.221024618552106631e+02 6.787719362962039895e+02 7.395549527299889405e+02 7.980807174559571422e+02 8.464300194343034036e+02 8.751305871738942415e+02 8.710059063552057523e+02 8.367017829385493997e+02 7.848354942050608543e+02 7.236555074417921105e+02 6.584779615196537179e+02 5.951261098788255595e+02 5.365356378914829065e+02 4.816905656477232469e+02 4.298959275454514000e+02 4.483074125785890942e+02 4.507807343880562598e+02 4.516116181267933030e+02 4.719432250643331486e+02 4.813146078891132902e+02 4.688048736256092184e+02 4.237232683009384573e+02 3.515794813793637559e+02 3.545239820027293831e+02 3.989586299035755133e+02 4.294616350577298931e+02 4.523856518504337032e+02 4.722376780426076266e+02 4.864192168391111863e+02 4.909493374209569652e+02 5.344821465230796775e+02 5.796687834235253831e+02 6.267391027211635901e+02 6.759832705143443263e+02 7.277767889556107548e+02 7.826207194837052157e+02 8.296221996083206704e+02 8.722050132631258066e+02 9.176047556704241970e+02 9.635799148900638329e+02 1.005185883433059985e+03 1.034390302705841577e+03 1.038802741853094631e+03 1.013715631125506093e+03 9.695873513228125375e+02 9.142267977381296760e+02 8.532228324379443620e+02 7.905828082953179319e+02 7.319912684642700924e+02 6.771457115640241682e+02 6.253509648276339021e+02 5.761059747275597829e+02 6.346968465793833047e+02 6.973988871153491118e+02 7.585540235974470988e+02 8.140294939208779397e+02 8.577338781094865681e+02 8.810020765474737345e+02 8.720945070139446216e+02 8.381758673056893940e+02 7.916589297516085253e+02 7.408109362638696211e+02 6.912620931681677803e+02 6.446800339816327323e+02 5.981659752068613898e+02 5.499961167559146133e+02 4.989154499716314604e+02 4.496703736596678027e+02 4.529286382203449648e+02 5.181332291327481698e+02 5.705141632781812859e+02
4.763896456931577745e+02 5.374651503061246558e+02 5.954296288309993770e+02 6.454712687044151380e+02 6.806254787452771779e+02 6.916086389610219385e+02 6.781803887056844360e+02 6.578632308134540381e+02 6.357573080449228655e+02 6.043909535537326292e+02 5.622770462544651764e+02 5.149433025027666417e+02 4.661126524972003153e+02 4.199865906898597245e+02 3.744249585252243833e+02 3.278137374059331819e+02 2.798423760676954544e+02 2.305708655906029776e+02 2.741044693572513893e+02 3.192923772129969961e+02 3.663641430558433854e+02 4.150591532860126449e+02 4.655351693292827235e+02 5.175466483298013145e+02 5.704470669981293440e+02 6.233474741709991349e+02 6.751273385541384187e+02 7.244364708619094699e+02 7.696140181028428060e+02 8.088030175980233025e+02 8.378724338692335323e+02 8.564771869204495260e+02 8.680540755702089655e+02 8.753192991272682093e+02 8.731147477245543769e+02 8.550223044599051718e+02 8.190659820887949536e+02 7.693930217433103280e+02 7.100209040077954796e+02 6.460459981380435011e+02 5.873827154353323294e+02 5.287919580432862858e+02 5.016064987460297289e+02 4.773565770722300954e+02 4.935262579250879753e+02 5.104361533955595860e+02 5.282128044757943144e+02 5.471202176852525554e+02 6.057109278762399072e+02 6.690634198536965869e+02 7.387739075496692749e+02 8.006255183073195667e+02 8.474215086966194121e+02 8.727514616908375729e+02 8.647316615785844078e+02 8.285975554870032056e+02 7.760762325331602369e+02 7.142752424980849355e+02 6.461300781458485289e+02 5.827781553299960251e+02 5.241876237036519797e+02 4.693425263938764829e+02 4.175478896922545573e+02 4.055971381796839523e+02 3.937085428948328740e+02 3.819011624037800061e+02 4.260041359469685744e+02 4.455729039171582144e+02 4.413112863973709068e+02 4.047135403776294424e+02 3.486361486021202722e+02 3.853349921083101322e+02 4.259488513035623214e+02 4.621540825058984296e+02 4.902989156016084280e+02 5.115895068876346841e+02 5.233821394814677888e+02 5.222033797818372705e+02 5.640768983119514814e+02 6.069705382332351746e+02 6.519334121686808885e+02 6.986950735307270861e+02 7.464235112341286822e+02 7.939394127105439338e+02 8.388737687922795203e+02 8.831848288343574040e+02 9.284445014575832147e+02 9.729790941572525753e+02 1.012041709582631256e+03 1.037282594531095356e+03 1.035624571285133698e+03 1.005947024440457199e+03 9.587539119162591987e+02 9.016733998754259574e+02 8.400257975125766734e+02 7.773746626535986479e+02 7.187831830347723781e+02 6.639376883369081952e+02 6.121429765664786373e+02 5.628979836823807545e+02 6.214888515186843279e+02 6.842098734157877971e+02 7.455070032475297239e+02 8.012089246452386533e+02 8.452404385646395895e+02 8.690270387374145002e+02 8.611219822886567954e+02 8.283993317499192699e+02 7.836385271241285864e+02 7.352250763422520095e+02 6.883245076249739896e+02 6.448106494124522214e+02 5.983086822073086068e+02 5.474573483077755327e+02 4.956626617437595428e+02 4.464175889077825445e+02 4.840705880622837753e+02 5.332329645757441767e+02 5.826313143574700462e+02
4.674927675961291129e+02 5.285904186883865350e+02 5.878831349133284903e+02 6.417479450441885547e+02 6.848168614009235853e+02 7.101858128192520780e+02 7.107892989519505136e+02 6.965232524178059066e+02 6.693597184392813233e+02 6.294764320276152603e+02 5.816855051798719387e+02 5.301359693300576055e+02 4.777406027506928012e+02 4.263130899952907953e+02 3.757561414815332910e+02 3.258270567224404886e+02 2.765451134541883675e+02 2.278646750283643883e+02 2.699301944180692772e+02 3.134640422407643996e+02 3.586518381365929145e+02 4.057233338952898407e+02 4.549687895822271457e+02 5.061950321965523472e+02 5.588539840169302124e+02 6.125549563577005756e+02 6.667211151135387581e+02 7.205652577260233329e+02 7.727563539990829895e+02 8.209010481368862884e+02 8.615120363141772941e+02 8.900052803090962925e+02 9.046408163403409617e+02 9.083353589736703952e+02 8.952076611569433453e+02 8.637051322258547543e+02 8.189193510638141333e+02 7.653693387200776215e+02 7.071996150880845562e+02 6.485505886390767500e+02 5.935084569828341046e+02 5.435344705305576554e+02 5.028261378965183894e+02 4.636851050335627633e+02 5.034301631337769436e+02 5.380547600161593209e+02 5.685100881134754900e+02 5.976567324660437635e+02 6.460422377046681959e+02 7.006873428933494097e+02 7.578917149766150487e+02 8.103670856983527528e+02 8.506038685723833623e+02 8.701254218865565235e+02 8.574823470762439683e+02 8.201890725973998997e+02 7.687519118026345950e+02 7.103744950261921076e+02 6.503033009596288139e+02 5.937800336620136932e+02 5.426858953586406642e+02 4.974843732752942174e+02 4.583756587088693095e+02 4.362018017602387658e+02 4.076415525432400955e+02 3.703079690001810036e+02 3.955039120998226849e+02 4.142440791292372069e+02 4.173555144331745055e+02 3.901194696843265319e+02 3.456939820866391528e+02 3.919149662761017225e+02 4.351720797943480648e+02 4.739275911359997053e+02 5.067266986840298841e+02 5.326300180427135729e+02 5.495086671597231316e+02 5.589655092881197334e+02 5.912785729201415279e+02 6.304114426057179799e+02 6.737494150436400560e+02 7.186601870716513076e+02 7.625001915518934084e+02 8.030607646888020099e+02 8.402707058266671538e+02 8.821450787189545508e+02 9.269601936506041966e+02 9.713644169868001654e+02 1.009793316105655435e+03 1.033399312875465966e+03 1.028713002484975732e+03 9.965997779951619577e+02 9.476819939128595252e+02 8.895617425405609993e+02 8.274233625296998298e+02 7.646075991706036348e+02 7.060161791126320168e+02 6.511707386792489842e+02 5.993760513665519056e+02 5.501310497251489551e+02 6.087219213430277023e+02 6.720747251108459750e+02 7.337475175511750649e+02 7.892568636415718402e+02 8.324344118207505971e+02 8.544388187442950766e+02 8.444745189575855875e+02 8.104400275962943851e+02 7.648004318240589328e+02 7.160080863298728673e+02 6.704947273627685718e+02 6.403548237554330171e+02 6.001010009347372716e+02 5.517519122799282059e+02 4.987336172765051288e+02 4.431691661675043292e+02 4.907325230624563801e+02 5.399364381976980667e+02 5.883750632179059039e+02
4.603938765403303819e+02 5.202227710635179392e+02 5.803785952001117039e+02 6.370788801157998478e+02 6.856643894184311421e+02 7.199875796433166215e+02 7.320900504983762858e+02 7.200210930621001353e+02 6.881457299637606866e+02 6.436360720609604869e+02 5.919745447572970534e+02 5.371096316984667283e+02 4.816051202789366243e+02 4.268613350891233154e+02 3.732751985421356835e+02 3.214796039371664165e+02 2.722335059836180449e+02 2.251618789225585147e+02 2.659123402314893951e+02 3.079781130617710119e+02 3.515118939350811615e+02 3.966994407536813014e+02 4.437707269869669631e+02 4.930161153593773520e+02 5.448112337513231296e+02 5.983337671500449915e+02 6.534386414377546544e+02 7.100720610724226844e+02 7.673914465104736564e+02 8.218628957791688663e+02 8.699883796657900348e+02 9.073222519271369038e+02 9.279699785668882441e+02 9.278262318135683699e+02 9.047668038645606430e+02 8.654589405267062148e+02 8.156638804976097390e+02 7.600083997578152548e+02 7.022208469407104303e+02 6.453015657340944244e+02 5.914052111064956989e+02 5.413774472075612039e+02 4.952257311293820976e+02 4.503885860450711220e+02 4.963200628354375681e+02 5.405018088287512228e+02 5.831254408767629229e+02 6.259697475775699331e+02 6.739149633726467528e+02 7.248115329306666581e+02 7.752486197005105169e+02 8.199149513939652252e+02 8.521142044367084054e+02 8.633997021842241111e+02 8.462608965685384419e+02 8.087765912368064392e+02 7.588966716706871694e+02 7.032356763250249969e+02 6.471024721111022018e+02 5.947909064323738448e+02 5.489656152286725046e+02 5.107016342320873150e+02 4.759783014558128116e+02 4.423986576732217486e+02 4.022854112296072344e+02 3.587522893782782489e+02 3.474312883032207537e+02 3.816011820875493754e+02 3.910946005081019052e+02 3.724340549793529362e+02 3.427533707443365643e+02 3.915549223835196813e+02 4.346340509247521027e+02 4.719889396487146769e+02 5.039764520638280487e+02 5.293152095677056650e+02 5.499444272282881911e+02 5.681023295399271547e+02 6.023473423841152226e+02 6.447872471755297283e+02 6.911016524494912119e+02 7.364841034754276734e+02 7.762531571896374771e+02 8.059158895861287419e+02 8.235233393005823928e+02 8.655805600580206374e+02 9.125821866790862487e+02 9.591703499447943386e+02 9.991340472535931667e+02 1.023408878865484667e+03 1.018491843484871197e+03 9.857487171028703870e+02 9.361933942084068576e+02 8.775980077653495073e+02 8.151800691457614221e+02 7.522360581287542800e+02 6.936446954507086957e+02 6.387993012021800041e+02 5.870046295476514615e+02 5.377596158079189763e+02 5.996895571543147980e+02 6.627765294788889605e+02 7.240107098429049302e+02 7.787104925208211625e+02 8.198085949045122334e+02 8.367144603813319463e+02 8.219355663359613118e+02 7.842726008032087748e+02 7.348384689789635331e+02 6.806592287237535857e+02 6.262044003899699192e+02 6.187778562877874720e+02 5.914812134888535411e+02 5.486372327613521520e+02 4.970843576638629315e+02 4.399242734365501519e+02 4.927973556076917134e+02 5.436665234091066168e+02 5.913505386726178585e+02
4.509740321706689770e+02 5.095729839924466660e+02 5.714416854695480197e+02 6.302339116805778758e+02 6.823398689891009781e+02 7.221904064709334534e+02 7.421036613696636550e+02 7.324900220371434898e+02 6.991937753582756159e+02 6.521036443493878778e+02 5.977238581928190797e+02 5.402793943087649495e+02 4.823681533363961762e+02 4.254219176760773848e+02 3.705760527169225043e+02 3.187804489052699637e+02 2.695343650316019080e+02 2.224627564749805515e+02 2.620259088785857102e+02 3.027766259434808376e+02 3.448423725890644960e+02 3.883759290540096458e+02 4.335632579497095094e+02 4.806344472773751022e+02 5.298798712089038645e+02 5.816751183636645237e+02 6.365212055164575986e+02 6.951133017191930321e+02 7.584674556380406329e+02 8.177553950884009737e+02 8.705783703857930504e+02 9.127236485234300289e+02 9.375676567556505461e+02 9.356003849135345263e+02 9.077387231695114451e+02 8.639138347704050602e+02 8.109523885291943088e+02 7.536399515583901803e+02 6.953502024891835163e+02 6.384043390721044489e+02 5.842175468658797399e+02 5.331122555562411662e+02 4.846265577116195686e+02 4.376476111765362020e+02 4.884665222292901490e+02 5.391098684532424841e+02 5.893433585832522112e+02 6.394302843633217890e+02 6.899684116947211123e+02 7.395068308795164285e+02 7.849379894853235555e+02 8.216613762673882775e+02 8.438362321976651401e+02 8.476809782236075534e+02 8.316270171119271026e+02 7.959882155188698789e+02 7.474843731546897061e+02 6.924647036436914505e+02 6.362271740239814335e+02 5.833731404707554020e+02 5.381546876263515742e+02 5.094259075082784420e+02 4.818761913624109638e+02 4.508200688205586175e+02 4.143582544263630894e+02 3.744841218759788717e+02 3.362637301404177492e+02 3.594514918290274750e+02 3.613390948014088053e+02 3.368746618423168115e+02 3.398137274196044473e+02 3.858964659157603592e+02 4.225304134857384497e+02 4.516870109457233866e+02 4.771336658425042856e+02 4.991697098814019569e+02 5.209185083842197628e+02 5.415377224018017159e+02 5.896197498865197986e+02 6.430976170914156000e+02 6.969883131498129387e+02 7.439423249573790144e+02 7.775979096410654847e+02 7.893553547240062471e+02 7.755896273746453744e+02 8.317258564901688942e+02 8.865561018936705295e+02 9.381887978523328684e+02 9.816736241742565880e+02 1.008518390600656403e+03 1.005624159035395792e+03 9.736899169770790650e+02 9.243563966335010491e+02 8.657317189586185577e+02 8.032153196586363038e+02 7.402006022571204085e+02 6.816092937485896073e+02 6.267639379338282879e+02 5.749692749168694945e+02 5.257242478642624519e+02 5.887115361940735738e+02 6.519737325976501552e+02 7.127158547408232607e+02 7.660627138183407396e+02 8.042485534245436156e+02 8.152674629498936838e+02 7.938315009950143804e+02 7.518508216500172239e+02 6.981090851196412359e+02 6.377244783329347229e+02 5.791335242550350131e+02 5.865885431408353270e+02 5.719627548669005819e+02 5.371337518684397310e+02 4.910201344210705656e+02 4.366818173690758726e+02 4.909638178942394688e+02 5.407084565475978479e+02 5.846066903793190477e+02
4.446685486634448239e+02 5.032687978287803503e+02 5.647031979025607598e+02 6.244265418872155351e+02 6.786506042785348427e+02 7.217538357306743819e+02 7.455564561848806306e+02 7.383688263164233376e+02 7.048909191257146176e+02 6.564027888724832565e+02 6.001989098627382191e+02 5.408658837757751598e+02 4.811728553285255998e+02 4.227265917316485115e+02 3.678807108465191504e+02 3.160850990902751505e+02 2.668390295655016757e+02 2.197674371088696148e+02 2.593305763188237734e+02 3.000812748565351171e+02 3.421470220274135841e+02 3.856805938594644090e+02 4.308679381920410378e+02 4.779391334693573867e+02 5.271845512891926546e+02 5.789797812482958079e+02 6.338258426530384213e+02 6.924179082721448140e+02 7.544811846411591887e+02 8.147251392581964637e+02 8.695870563100784238e+02 9.139466028933068174e+02 9.401275327212587172e+02 9.367289945575960246e+02 9.060180828615048085e+02 8.593426117539314646e+02 8.041839714640636885e+02 7.454140846854853635e+02 6.861458600540538555e+02 6.283243733277440697e+02 5.734792914332581404e+02 5.216847233320057740e+02 4.724397145926830603e+02 4.253688432107113613e+02 4.801132088387598174e+02 5.354084553473911683e+02 5.905940403852933969e+02 6.448485890404947440e+02 6.969337487219304421e+02 7.444115214128443085e+02 7.834186521175456619e+02 8.091054065349721895e+02 8.197425423274197556e+02 8.194497040223843669e+02 8.073227456754270861e+02 7.775572583114546887e+02 7.314415061793670247e+02 6.759231925429479588e+02 6.160021342172540244e+02 5.560571467132791668e+02 4.998035471376749683e+02 4.767696130576618998e+02 4.602571710452180014e+02 4.405417724590196258e+02 4.109175060169396829e+02 3.716605932272025825e+02 3.251784397725939471e+02 3.280971163973025000e+02 3.310161694415776878e+02 3.339359793770963734e+02 3.519540659465008616e+02 3.703989969147913257e+02 3.893065501991624160e+02 4.088241693323733443e+02 4.292682411310891553e+02 4.508037753711826099e+02 4.740254518268063180e+02 4.994729616985345046e+02 5.628253812261970097e+02 6.325350517978772587e+02 6.981303022643481881e+02 7.455199858339893808e+02 7.707615413768562576e+02 7.646303886143022055e+02 7.320562652584466150e+02 7.951063811494173024e+02 8.559881578075140851e+02 9.125247186753857704e+02 9.600381687348194646e+02 9.904163278559082073e+02 9.909999000191781988e+02 9.609104193752334595e+02 9.124363634331675712e+02 8.540831438965012694e+02 7.915403335592361600e+02 7.284726079122068541e+02 6.698813495650672394e+02 6.150360249395299661e+02 5.632413652131529034e+02 5.139963253092859077e+02 5.772351179557167598e+02 6.404029755979446463e+02 7.004631195941303758e+02 7.522485276116811974e+02 7.875881728634263936e+02 7.942102179322507709e+02 7.683493936697168465e+02 7.227913358921615554e+02 6.662619873471147685e+02 6.044918782856468624e+02 5.416372409403139727e+02 5.516583984229910129e+02 5.431032874687739422e+02 5.172970276613295937e+02 4.816901487790407828e+02 4.334415222066187425e+02 4.856354083966583630e+02 5.297701699473989265e+02 5.646080770873766141e+02
4.384190189640575568e+02 4.970206388176372911e+02 5.585935465082783367e+02 6.189838561469515525e+02 6.745467694615470009e+02 7.196216868424213544e+02 7.456989835450648343e+02 7.403591032912318042e+02 7.070923255591416137e+02 6.578602356270122300e+02 6.004641539335025300e+02 5.397688760902418608e+02 4.786264681965266732e+02 4.200350516047628844e+02 3.651891551820011728e+02 3.133935366888070462e+02 2.641474816290419767e+02 2.170759030930733218e+02 2.566390312615985181e+02 2.973897116242928291e+02 3.394554580624922551e+02 3.829890443240365698e+02 4.281764041042162035e+02 4.752476059074318755e+02 5.244930183111778206e+02 5.762882316837198005e+02 6.311342677892386064e+02 6.897263030704019684e+02 7.515827732121914551e+02 8.122177844993356075e+02 8.678808039667785579e+02 9.129431601003481092e+02 9.390208718138956101e+02 9.338543294156385173e+02 9.009294421227382372e+02 8.521837529437742660e+02 7.953917423363502621e+02 7.354045642537105323e+02 6.750266449977668799e+02 6.164358206598918741e+02 5.615907327915640508e+02 5.097961506608398281e+02 4.605511317290302031e+02 4.134802450771766757e+02 4.711252572503611873e+02 5.298250876732279266e+02 5.881641216888363033e+02 6.443811668088676470e+02 6.958969974408132657e+02 7.388105034717503941e+02 7.672820999064188072e+02 7.797878349786249146e+02 7.826585370874729506e+02 7.801901714672303569e+02 7.715052949512506757e+02 7.502762094621423330e+02 7.094543507693740594e+02 6.550586960450355036e+02 5.908012415444503631e+02 5.210912789603215742e+02 4.577387449223637077e+02 4.219878620271665000e+02 4.159635628715402618e+02 4.092068030982298978e+02 3.892920210436653861e+02 3.567374437282471717e+02 3.223141704176866824e+02 3.628055939861507682e+02 3.870159108325531747e+02 4.005485968426600607e+02 4.172121547004864510e+02 4.350659597296025822e+02 4.517814127371620430e+02 4.674150448076300108e+02 4.874054289441581318e+02 5.055233700155525298e+02 5.221203182494585917e+02 5.324130996623559895e+02 5.916412872692754945e+02 6.549851547502930771e+02 7.113071886101579366e+02 7.502097749424991662e+02 7.617053273190521168e+02 7.403870874665800557e+02 6.970825005009551205e+02 7.604357743837699672e+02 8.252400534156793128e+02 8.854909893216878345e+02 9.365899873428865021e+02 9.706716001927977686e+02 9.754932287204338763e+02 9.480061681150295954e+02 9.008897221440972771e+02 8.429639269272311140e+02 7.802109426299566621e+02 7.170273629133344002e+02 6.584361502283575192e+02 6.035908502586404438e+02 5.517961900295937312e+02 5.025511390001421432e+02 5.657443818131150692e+02 6.286032877547770568e+02 6.878044353158317108e+02 7.378603982682637934e+02 7.702391642499028421e+02 7.722920244259374840e+02 7.427420188050552952e+02 6.943306471865876119e+02 6.356150287336726024e+02 5.720497553750063844e+02 5.086970564004777771e+02 5.147717643001020633e+02 5.037221523875289222e+02 4.791227348032112445e+02 4.607559371961871193e+02 4.302023061103797090e+02 4.716240875261227075e+02 5.022418665457241786e+02 5.253173486467574094e+02
4.322238293527561268e+02 4.908268675852322076e+02 5.526604900555103086e+02 6.135837124278739338e+02 6.700576182822279634e+02 7.164132554122229521e+02 7.439771247226743753e+02 7.400223873234015173e+02 7.070908429805972446e+02 6.575081461353270242e+02 5.994050215937830899e+02 5.378785089635214263e+02 4.759387035233618235e+02 4.173472796422269653e+02 3.625013681126959568e+02 3.107057440304699867e+02 2.614597034207574211e+02 2.143881368791397506e+02 2.539512558837451479e+02 2.947019185455357615e+02 3.367676631002182717e+02 3.803012628338124159e+02 4.254886380137930928e+02 4.725598468852566043e+02 5.218052545613992379e+02 5.736004519609222143e+02 6.284464632240575384e+02 6.870384684225277852e+02 7.490600173209243167e+02 8.100280957857733029e+02 8.659535022145156518e+02 9.108470700021265429e+02 9.358781936306226044e+02 9.283450483130532120e+02 8.932746283370134961e+02 8.428035864271794253e+02 7.848007586108570877e+02 7.241223278391610165e+02 6.634711366570149949e+02 6.048803227077905831e+02 5.500352271616113740e+02 4.982406321327540581e+02 4.489956019370644640e+02 4.019246871810577204e+02 4.605156376248344827e+02 5.220166245373789025e+02 5.820124644395395990e+02 6.380875246889395385e+02 6.863476159656070195e+02 7.212254772722823191e+02 7.360976187256970888e+02 7.383284678889268662e+02 7.356814645897881064e+02 7.323566481658913290e+02 7.276153980591651589e+02 7.154395064172480261e+02 6.851372163978512617e+02 6.373220019948875006e+02 5.785268020135564484e+02 5.147049019413784663e+02 4.511403698650682372e+02 3.884139813199106470e+02 3.581366029505080064e+02 3.687397801743361470e+02 3.517960042907631646e+02 3.165868760842251959e+02 3.194502560627290677e+02 3.869344157131749853e+02 4.322320174920528757e+02 4.583702948107579118e+02 4.789833108577473695e+02 4.983213804913557965e+02 5.148272522828107185e+02 5.302942419383430206e+02 5.471380470409063719e+02 5.616457830193360223e+02 5.722284245200957002e+02 5.690018723613775364e+02 6.110663269990922117e+02 6.773704977282729942e+02 7.269128531591615001e+02 7.543371843843024180e+02 7.500979943775546417e+02 7.173271052525443565e+02 6.668053834388886116e+02 7.301584808590971534e+02 7.965311350581920351e+02 8.590204553260576859e+02 9.128330493221014876e+02 9.502764818752395968e+02 9.596388071097784405e+02 9.356024236317316536e+02 8.904390423520412696e+02 8.331205596977805499e+02 7.691965814595436086e+02 7.058433520568148651e+02 6.472521803035002677e+02 5.924068992905462210e+02 5.406122361521219091e+02 4.913671766468870601e+02 5.544778657809109745e+02 6.169650348907249509e+02 6.751960637256589735e+02 7.233556356809164072e+02 7.526153055256056632e+02 7.502006607105115563e+02 7.174585149704672631e+02 6.668447281862427189e+02 6.066770261424478576e+02 5.422246699790998719e+02 4.788719634472233224e+02 4.774158250676125590e+02 4.581033148321129147e+02 4.205664474777879036e+02 4.237647798822981713e+02 4.269636294665749574e+02 4.418391725060639601e+02 4.569369926803253747e+02 4.723654909399815551e+02
4.260814505437687671e+02 4.846859267475124398e+02 5.467754083323621899e+02 6.081265508135963955e+02 6.652610900549872213e+02 7.125151455521603339e+02 7.411427547365660757e+02 7.382781118292296014e+02 7.057310482895272798e+02 6.560475585504646006e+02 5.975798444418765030e+02 5.356016338566614650e+02 4.732546899073153668e+02 4.146632583326749568e+02 3.598173321644154043e+02 3.080217035775536942e+02 2.587756772939962389e+02 2.117041210907376865e+02 2.512672325212514863e+02 2.920178780510275942e+02 3.340836196792159285e+02 3.776172319157324750e+02 4.228046223916828694e+02 4.698758388384472937e+02 5.191212424668624408e+02 5.709164245107198212e+02 6.257624113961207968e+02 6.843543867766243238e+02 7.468360726015833961e+02 8.084009509809426390e+02 8.643656109110550005e+02 9.084578798379848195e+02 9.315643966506221432e+02 9.208519151096884343e+02 8.834121563403776918e+02 8.312783817422417769e+02 7.722536477834170228e+02 7.113019263039768703e+02 6.513073423212794069e+02 5.936286805657991863e+02 5.387835763168479843e+02 4.869889689573477085e+02 4.377439236496468880e+02 3.906729628745755463e+02 4.523911405850760730e+02 5.146412573410683535e+02 5.747678581796350272e+02 6.289604537105657300e+02 6.715366366395434170e+02 6.941380786350109702e+02 6.954245478023158284e+02 6.881701487856674930e+02 6.813526335977826420e+02 6.779511639538411600e+02 6.775159389991516719e+02 6.724224550767454502e+02 6.537949667360408057e+02 6.165986683848237817e+02 5.643876323568117641e+02 5.049247079560329894e+02 4.433150732287820688e+02 3.829480393932368543e+02 3.291512171474433330e+02 3.340777253890331622e+02 3.108615433167854576e+02 3.137238526322561825e+02 3.671603222731521328e+02 4.227994648377889462e+02 4.712506404926337495e+02 5.073344423516423944e+02 5.341378553181161806e+02 5.572792253786321908e+02 5.755076287013184810e+02 5.914778278895124686e+02 6.072029198755873267e+02 6.201882028366130726e+02 6.310465913972525414e+02 6.387114673425095361e+02 6.603106066355184112e+02 7.107565502032764471e+02 7.466115616752514370e+02 7.574670166163476779e+02 7.366061866477423337e+02 6.945400019698494134e+02 6.396198898202887904e+02 7.029728359298951545e+02 7.699920726015759556e+02 8.337086696803514769e+02 8.893236482181878273e+02 9.293900892346210867e+02 9.430132811467801730e+02 9.242604524853800285e+02 8.821047069597244672e+02 8.268843778261630177e+02 7.654844594752844387e+02 7.031767456246042229e+02 6.431154435901977422e+02 5.861458939781499566e+02 5.321764595782077549e+02 4.804255683416253078e+02 5.436794945557354595e+02 6.058940514503950681e+02 6.630941962975209663e+02 7.090985240298685994e+02 7.347672308704643456e+02 7.279854963652277320e+02 6.925037038311487549e+02 6.402843557990671570e+02 5.793375399943943194e+02 5.147089868697701149e+02 4.513562849142596178e+02 4.415791693675180341e+02 4.141718484473118451e+02 4.173688898867101784e+02 4.630554362066484373e+02 4.805276346448237064e+02 4.923284846197444153e+02 4.988097669575643636e+02 4.963976095429579800e+02
4.199904311853318291e+02 4.785963357551979698e+02 5.409069379398888486e+02 6.026027131455992958e+02 6.602426459062806998e+02 7.081746808037529490e+02 7.376278187302235665e+02 7.356783808876402873e+02 7.035439045960176827e+02 6.539195002372965746e+02 5.953109050027330795e+02 5.331183066933580221e+02 4.705744099343182256e+02 4.119829703045620590e+02 3.571370299975316129e+02 3.053413979245431733e+02 2.560953857560789970e+02 2.090238385131715688e+02 2.485869436682168612e+02 2.893375727035297587e+02 3.314033104690213918e+02 3.749369342352695753e+02 4.201243398501648585e+02 4.671955643428232179e+02 5.164409645932714739e+02 5.682361319019416896e+02 6.230820948818897023e+02 6.816740407185321828e+02 7.450280390185561146e+02 8.082052372237598092e+02 8.639771604936662470e+02 9.065252177092957027e+02 9.264738402201949157e+02 9.115054244228911102e+02 8.713782278811538617e+02 8.174629826688574212e+02 7.571443934794142478e+02 6.956505327123895768e+02 6.362772672318335481e+02 5.798073149164106326e+02 5.262636083400975622e+02 4.754000777470050707e+02 4.267417066896122719e+02 3.796842002476878974e+02 4.428293518184606796e+02 5.055978832007772894e+02 5.648326462874828167e+02 6.155235474119029959e+02 6.501722814808620114e+02 6.589741908388803040e+02 6.481870826868980657e+02 6.310563541717714315e+02 6.215688001831314295e+02 6.184017520325568285e+02 6.237384959013655816e+02 6.242870987813060992e+02 6.136271792850290012e+02 5.879316603784379822e+02 5.438583380419363493e+02 4.893766983162638553e+02 4.294704571674076874e+02 3.656363305765584073e+02 3.022821039105841123e+02 3.051404913910164396e+02 3.079997702990810353e+02 3.515338865889057729e+02 4.009272441917917149e+02 4.505510544285705805e+02 4.983227928161858813e+02 5.414722196785295409e+02 5.773809422317623330e+02 6.072923185806042738e+02 6.300572223424446747e+02 6.485146300959747805e+02 6.650746983867128392e+02 6.781448657136597831e+02 6.904961426980556780e+02 7.039398848634086789e+02 7.232998584331137408e+02 7.512403722213533683e+02 7.668718847417287634e+02 7.567648509605680829e+02 7.228061823083470472e+02 6.734332366324003942e+02 6.149138155397258743e+02 6.782666480157854494e+02 7.453708130730078665e+02 8.095625919192203810e+02 8.660309139273691699e+02 9.073876345018773009e+02 9.228064224002454239e+02 9.095962762133458455e+02 8.713599269317641074e+02 8.188146511908176990e+02 7.589182008652085187e+02 6.964443837576067153e+02 6.349259717674814283e+02 5.763349955915996361e+02 5.214897727427108975e+02 4.696950840358241521e+02 5.338223282541241588e+02 5.959819462065129301e+02 6.520911440414080289e+02 6.955005550239585546e+02 7.159249948581154968e+02 7.051209467608288151e+02 6.674601499847317427e+02 6.141970377196535082e+02 5.530851507966679037e+02 4.889972962393192120e+02 4.256446205534658702e+02 4.077805998944313615e+02 4.109758380258573993e+02 4.628688772282743003e+02 5.055863015486906988e+02 5.278971028397442069e+02 5.380691731225393823e+02 5.372004402995354440e+02 5.206475450286259274e+02
4.139493916091204824e+02 4.725566860479341926e+02 5.350529244248534724e+02 5.970306622500845606e+02 6.550761889616143208e+02 7.035541295929307353e+02 7.336942857852233146e+02 7.325587945420312508e+02 7.008563992054840810e+02 6.513923723675470683e+02 5.927831613349128475e+02 5.305195927399738594e+02 4.678978463291313119e+02 4.093063983246007069e+02 3.544604444055859744e+02 3.026648097980485659e+02 2.534188114673445682e+02 2.063472720841207320e+02 2.470329445631891474e+02 2.887170138106064314e+02 3.316959375509694041e+02 3.761994597677777961e+02 4.224296299647287469e+02 4.706602577478168996e+02 5.212213512971534328e+02 5.744746443579280140e+02 6.307253197877215598e+02 6.899847673904479279e+02 7.514984707476272661e+02 8.120303111077662379e+02 8.660159321157806289e+02 9.059026490930090176e+02 9.202577231711339891e+02 8.998132509172378377e+02 8.570845912232375667e+02 8.015191031047885417e+02 7.390253490040340694e+02 6.756725872277243070e+02 6.170817403079233827e+02 5.622366351794752291e+02 5.104420499859149913e+02 4.611970289968075463e+02 4.141261041223901316e+02 3.689389586453519883e+02 4.334858485062122782e+02 4.965194889711999622e+02 5.543319335651081019e+02 6.005821133533831926e+02 6.250396234782133433e+02 6.203186585562698383e+02 5.973520925300845192e+02 5.677041130587331281e+02 5.629782616877221244e+02 5.598112111390123573e+02 5.695457199643996091e+02 5.739096093953169202e+02 5.684711616415455637e+02 5.517302268314816729e+02 5.178688083347079782e+02 4.704680299181282521e+02 4.164975805124893782e+02 3.590400457275565032e+02 2.994313209290548912e+02 3.303573980263818726e+02 3.533397672510802749e+02 3.849606602924116032e+02 4.238185265457690889e+02 4.663088693065531061e+02 5.111879534464963513e+02 5.565841410926353774e+02 6.003912685384618726e+02 6.407018141377398024e+02 6.731054819317929514e+02 6.972719469611253089e+02 7.167198775685155852e+02 7.307312170158334084e+02 7.435506147652719164e+02 7.570251675548967114e+02 7.703325381110163335e+02 7.818878535587342640e+02 7.770296569666548976e+02 7.499509852161831986e+02 7.063467759989848673e+02 6.521040594045201715e+02 5.920647368668621766e+02 6.554174931292996007e+02 7.223220053823100670e+02 7.864284683283252662e+02 8.428892112346735530e+02 8.842928557382045938e+02 8.999170573585961392e+02 8.917099977354720295e+02 8.582411059744775912e+02 8.093359817248532408e+02 7.512326133495362228e+02 6.877327794886682568e+02 6.243798573326151882e+02 5.657888920128008294e+02 5.109436664115513054e+02 4.591489799464591215e+02 5.231088738564981213e+02 5.844700049654567238e+02 6.387006105337383133e+02 6.786470113323723581e+02 6.934205032423917601e+02 6.806190077767183766e+02 6.416547002894210436e+02 5.877828394093199904e+02 5.269399346978207177e+02 4.644854786626908094e+02 4.013947491599039381e+02 4.045871613797494888e+02 4.530302407547045505e+02 5.007753327680094344e+02 5.420829237527578925e+02 5.683784992162169374e+02 5.789893137574631510e+02 5.743554687789874151e+02 5.453536378134454026e+02
4.079570178874625412e+02 4.665656364722685225e+02 5.292187147843053481e+02 5.914330924258094910e+02 6.498187073421552213e+02 6.987608653827011267e+02 7.295052276515706353e+02 7.291246716821082146e+02 6.978679334326476464e+02 6.486275353234675549e+02 5.901038573955047468e+02 5.278552349185057437e+02 4.652248399758622099e+02 4.066333833179612611e+02 3.517874163351104926e+02 2.999917800777346883e+02 2.507457952615467889e+02 2.036742629079936648e+02 2.444246475687791644e+02 2.864902857101445193e+02 3.300240599478063928e+02 3.752117161889634644e+02 4.221152678932218691e+02 4.710796104992150504e+02 5.224820911132818537e+02 5.767054494471040016e+02 6.339645592379060872e+02 6.937704925740082444e+02 7.547753476003651940e+02 8.139718593503179136e+02 8.661366084968755104e+02 9.032160363141496191e+02 9.130301865772678411e+02 8.892013257523785796e+02 8.447298089794282987e+02 7.887739179647554693e+02 7.274820787026885682e+02 6.651539360867818687e+02 6.065630993672716613e+02 5.517179899381812902e+02 4.999233931864033025e+02 4.506783538421686899e+02 4.036073830002540603e+02 3.584201210586825823e+02 4.230454378982124695e+02 4.854274996695003779e+02 5.410441278170223995e+02 5.822769873112150663e+02 5.967979479296595855e+02 5.807508893480088545e+02 5.462152805417238142e+02 5.091134575481031561e+02 5.081332596019072980e+02 5.049662044202343054e+02 5.170195238880261286e+02 5.233027795572863852e+02 5.200907151633703052e+02 5.069871920009094310e+02 4.807380527795826310e+02 4.420701896108711253e+02 3.970268983670635521e+02 3.493843850769139863e+02 2.965815979868766590e+02 3.328870701394769753e+02 3.648044214446454134e+02 3.966156788721008866e+02 4.305641952821398490e+02 4.674496420324186943e+02 5.102358994691860516e+02 5.572099011600130325e+02 6.062422846640320131e+02 6.546558310705089525e+02 6.980778285880587646e+02 7.323302375544794813e+02 7.567464083672903143e+02 7.721318361402609298e+02 7.838064462213594652e+02 7.938648193909529027e+02 7.999191828254139409e+02 7.976382025491415106e+02 7.765949531984384748e+02 7.389004329929352934e+02 6.889988695422557612e+02 6.316087645650848117e+02 5.708202594434278581e+02 6.341729715209606866e+02 7.006314803132195266e+02 7.641882774190852388e+02 8.198408223176727461e+02 8.599942007521577807e+02 8.738773457142990537e+02 8.689652438410545301e+02 8.422078515667089960e+02 7.993989000568591337e+02 7.457302397666114757e+02 6.856869884230411571e+02 6.235702239955193136e+02 5.622132561386140424e+02 5.036223312538160712e+02 4.487771028894222809e+02 5.120634892732288108e+02 5.720320663626985151e+02 6.236559960419729123e+02 6.593963179895245048e+02 6.683725801073189814e+02 6.543293781296387124e+02 6.146608260896605316e+02 5.600345593280120511e+02 4.986996201865789544e+02 4.403892014229562051e+02 3.982158421376304318e+02 4.369298983017766886e+02 4.815512215775094091e+02 5.262981656010679217e+02 5.665719868842224969e+02 5.971836113055643409e+02 6.131081416734089089e+02 6.155556344957012698e+02 6.114355017611107996e+02
4.020120562637899866e+02 4.606219089337936907e+02 5.234102388514249924e+02 5.858291254928302578e+02 6.445111396455059776e+02 6.938655165362777097e+02 7.251630231913391071e+02 7.255018806484683864e+02 6.946995352751873725e+02 6.457216531557908183e+02 5.873358509839412136e+02 5.251535963566208238e+02 4.625553751491146386e+02 4.039639095993802584e+02 3.491179301182915538e+02 2.973222930303311955e+02 2.480763213767480124e+02 2.010047954812609703e+02 2.417551756698121608e+02 2.838207994643386769e+02 3.273545687864983620e+02 3.725422346824340707e+02 4.196136507579025192e+02 4.688590882973117004e+02 5.206541445603666034e+02 5.754998994585077980e+02 6.338549414708785434e+02 6.943767831674313129e+02 7.553985241580733145e+02 8.138465860498330358e+02 8.644906239171152720e+02 8.990744567759844585e+02 9.051774810653208760e+02 8.788801546485325389e+02 8.331824548790426661e+02 7.770541007995400378e+02 7.163895200301116120e+02 6.548465718736747476e+02 5.962557425468737620e+02 5.414106274116269333e+02 4.896160177920602337e+02 4.403709542374878083e+02 3.932999218509648358e+02 3.481125222738434104e+02 4.122568788915274922e+02 4.735314105174725796e+02 5.268087398763525471e+02 5.636223088735063129e+02 5.700185090549778124e+02 5.426096933906169397e+02 4.938308638888984774e+02 4.542683070805445027e+02 4.563311848126541577e+02 4.531715708892341468e+02 4.670737521120185534e+02 4.740944057004166439e+02 4.707966112765276989e+02 4.573913175649495315e+02 4.318622553652729152e+02 3.951982705695182858e+02 3.556515127873591382e+02 3.284333291068150515e+02 2.937341623280996714e+02 3.313089784765450645e+02 3.631315225782572043e+02 3.915927371612337424e+02 4.200334776969215227e+02 4.489150655819532290e+02 4.930893986537453202e+02 5.437137831944245363e+02 5.985752387272708575e+02 6.550762838477111245e+02 7.060402466198409002e+02 7.478076910700715416e+02 7.782732139721923659e+02 7.954092570156708462e+02 8.032987891258434274e+02 8.059124424955043651e+02 8.060354300765061453e+02 7.966073546869295114e+02 7.691924794075654290e+02 7.263260360219668428e+02 6.727507278996636160e+02 6.130495847679534336e+02 5.509718526741123696e+02 6.143245442430702496e+02 6.801783684186609662e+02 7.428407873723165267e+02 7.969764054439706342e+02 8.345306888645824301e+02 8.441109326480278696e+02 8.372458773288961993e+02 8.157955782283827375e+02 7.841266861016842995e+02 7.379081175214167843e+02 6.818291276463851318e+02 6.208753229558228668e+02 5.586245319224258310e+02 4.971487452892320107e+02 4.385578324743701728e+02 5.010602909738207700e+02 5.592140028641941853e+02 6.074031603256230483e+02 6.377099763845792495e+02 6.404840071580646281e+02 6.260172814151273997e+02 5.868601543856818807e+02 5.309233352749184860e+02 4.615732220092096441e+02 3.918628239415304506e+02 3.950384506049638276e+02 4.491255882119926923e+02 4.965269620216160433e+02 5.399118033516361947e+02 5.783682564619145978e+02 6.093708784527988200e+02 6.307915920747649352e+02 6.413855795830710349e+02 6.476224613911530241e+02
